ply
format ascii 1.0
comment Created by Open3D
element vertex 1281
property double x
property double y
property double z
property uchar red
property uchar green
property uchar blue
end_header
30.0668 -50.6002 0.00787913 45 17 119
29.9308 -42.0964 0.0100233 44 13 117
29.7289 -28.7304 0.00681661 71 65 108
30.1337 -52.4225 0.00575079 103 69 171
30.0003 -41.6883 0.00942644 43 13 118
29.9329 -37.5747 0.0115093 37 13 112
29.8641 -33.1848 0.00871901 31 13 95
29.7965 -29.0008 0.00707273 67 61 107
29.7188 -24.6065 0.0124554 81 80 101
30.1352 -48.1038 0.00819709 46 17 123
30.0639 -41.7573 0.0109293 43 13 117
29.9976 -37.3665 0.00942024 36 13 111
29.9279 -33.2505 0.00812292 31 13 96
29.8624 -28.8661 0.00598421 68 61 107
29.8092 -24.6851 0.0144272 81 79 101
30.1983 -52.2863 0.00561132 50 24 126
29.9299 -33.0475 0.00890838 31 13 95
29.7985 -24.7497 0.0136009 80 79 102
29.9954 -37.5686 0.0101862 37 13 112
29.8645 -28.7987 0.00636418 69 62 108
30.2688 -52.0173 0.00725988 52 20 127
30.1339 -43.5121 0.00893955 47 12 121
30.0659 -37.7078 0.0104132 38 12 114
29.9984 -33.3151 0.00810691 31 14 97
29.8654 -24.8104 0.0125121 78 78 103
29.9303 -29.2058 0.00823799 66 56 109
29.8692 -24.8852 0.0118101 78 78 104
30.1974 -47.8381 0.00893403 48 16 123
30.1363 -43.5846 0.0095972 48 12 122
30.0632 -37.6407 0.01058 38 12 113
29.996 -33.3879 0.0089108 32 14 98
29.931 -29.1352 0.00775001 68 58 109
30.3384 -46.4837 0.00868442 49 15 125
30.2732 -42.2319 0.0109861 45 11 121
30.1932 -37.7057 0.0104687 38 12 113
30.1351 -33.4558 0.00836653 32 14 98
30.065 -30.4876 0.00751464 28 15 90
30.0057 -26.2212 0.0140101 79 75 107
30.3355 -46.1452 0.00861458 48 14 124
30.2718 -41.7615 0.00980801 44 10 120
30.0647 -30.69 0.00699795 26 14 88
30.4032 -50.8732 0.00839421 49 17 124
30.1317 -33.2553 0.00871062 29 14 95
30.1967 -37.6384 0.0107259 38 12 113
29.9942 -26.2991 0.0120549 80 76 107
30.4732 -50.7331 0.00797871 50 17 124
30.4026 -46.4815 0.00976062 48 15 123
30.2687 -37.6414 0.0110713 38 12 111
30.0614 -26.4459 0.0138403 76 72 104
30.332 -41.8934 0.0118879 44 10 120
30.198 -33.1178 0.00988597 28 13 94
30.1341 -28.8651 0.00590291 67 63 108
30.5373 -51.0734 0.0065348 49 17 124
30.4767 -46.8235 0.00824982 48 16 123
30.3345 -38.2495 0.0100388 39 13 116
30.2697 -33.9979 0.00954905 33 12 103
30.198 -29.7432 0.00808524 55 44 103
30.3987 -42.5666 0.0100709 47 13 123
30.1406 -25.4933 0.0149363 79 75 104
30.5345 -42.2962 0.00847362 47 12 123
30.4762 -37.7756 0.010002 38 12 113
30.4061 -33.523 0.00868028 33 13 103
30.672 -51.1395 0.00669951 49 18 122
30.3326 -28.9365 0.00806343 67 59 105
30.2738 -24.6817 0.0119385 79 77 101
30.7378 -51.3413 0.00737389 50 18 125
30.5365 -37.7078 0.00896417 39 13 115
30.4726 -33.183 0.00940434 29 14 97
30.6064 -41.9642 0.01099 48 11 124
30.4017 -28.9306 0.00689732 67 59 106
30.3359 -24.8797 0.0148792 77 74 102
30.678 -42.5041 0.00889578 47 13 123
30.6046 -37.9104 0.00972694 40 13 116
30.8083 -51.2778 0.00742386 50 18 125
30.4705 -29.1349 0.00731044 65 55 107
30.3965 -24.8895 0.0148846 77 74 102
30.5405 -33.6615 0.00926669 32 11 102
30.735 -46.9554 0.00896122 48 15 122
30.674 -42.5696 0.00893534 48 13 124
30.6065 -37.8417 0.00925389 40 13 116
30.5367 -33.4568 0.00920306 31 14 101
30.4736 -29.3377 0.00725591 63 52 105
30.4008 -24.9523 0.013713 76 74 103
30.8072 -45.6007 0.00939319 47 13 123
30.7354 -41.0863 0.010279 46 13 120
30.6045 -32.7787 0.00830459 27 12 95
30.5377 -28.5286 0.00626692 70 62 108
30.6738 -36.828 0.0116358 39 12 115
30.4772 -24.007 0.0142888 72 72 98
30.9406 -49.5854 0.00943271 45 18 123
30.806 -41.2832 0.00971323 46 13 120
30.7406 -36.768 0.00991662 37 12 114
30.6691 -32.5092 0.00739851 27 12 94
30.8735 -45.5347 0.0109966 47 13 124
30.6049 -28.4625 0.00725665 70 61 107
30.5438 -24.2045 0.0150796 77 73 100
31.0759 -53.5024 0.00598655 81 12 157
31.0093 -48.9812 0.00722275 45 18 123
30.9385 -44.7313 0.00978706 48 14 126
30.8114 -36.4261 0.00925372 34 14 111
30.7388 -31.9037 0.00843677 29 12 92
30.8764 -40.6779 0.0103463 46 13 120
30.6727 -27.6524 0.00684116 65 60 103
31.0083 -49.1801 0.00743839 45 18 123
30.8737 -40.607 0.0105552 47 14 121
30.7377 -32.1085 0.00814606 31 13 95
30.8096 -36.2217 0.0102952 36 13 113
30.6732 -27.7184 0.00718308 66 60 103
31.076 -53.3667 0.00577558 120 35 177
30.9432 -44.8643 0.00914387 48 14 126
30.8737 -40.5438 0.00916711 46 13 120
30.8121 -36.2896 0.00885689 35 13 113
30.7384 -32.0368 0.00756304 30 13 93
30.6727 -27.7837 0.00572891 67 60 103
31.0089 -44.3861 0.00911831 48 12 125
30.941 -40.138 0.00891453 42 13 121
30.8768 -35.5515 0.00998994 33 12 107
30.8051 -31.2927 0.00784137 27 13 88
30.7447 -26.7711 0.0127615 73 66 107
31.2791 -52.6902 0.00705607 218 160 255
31.1452 -44.1206 0.0100891 50 13 126
31.0713 -39.8673 0.0102103 43 12 121
31.0089 -35.6155 0.00916634 34 13 108
30.9407 -31.3616 0.00841706 30 13 88
30.8679 -27.0474 0.0159881 65 63 103
31.278 -47.9711 0.00830915 49 15 125
31.2131 -43.7165 0.00932365 46 13 126
31.0758 -35.9516 0.0087199 37 13 111
31.0108 -31.4324 0.00758238 29 13 88
30.9437 -27.1755 0.0130217 65 60 101
31.3496 -52.2857 0.00686642 39 7 127
31.2762 -48.1713 0.00773958 49 15 125
31.2126 -43.7792 0.00859374 46 13 126
31.1449 -40.1416 0.00954973 43 14 122
31.0759 -35.7475 0.00934772 36 15 110
31.0089 -31.6341 0.00831873 28 14 90
30.9368 -27.2529 0.00686264 65 58 102
31.3484 -51.138 0.00762828 52 19 126
31.2122 -42.3693 0.009348 47 13 123
31.1436 -37.23 0.00879612 40 12 115
31.0747 -32.9808 0.00828804 28 13 96
31.0099 -28.4621 0.00620979 70 62 110
31.2817 -46.6224 0.0117049 51 12 127
30.9397 -24.2065 0.0194495 79 77 99
31.4183 -50.9369 0.00738881 51 18 125
31.2793 -42.4348 0.00905924 47 13 123
31.2136 -38.1844 0.00968425 40 13 117
31.1445 -32.7801 0.00801848 29 12 95
31.0012 -24.288 0.0194004 84 80 103
31.3481 -46.6883 0.010688 51 12 127
31.0755 -28.5273 0.0064251 69 61 110
31.4822 -51.2074 0.00680217 54 19 128
31.4172 -46.3494 0.0080512 52 14 127
31.3531 -42.0978 0.0103256 46 12 123
31.2773 -37.847 0.0099289 40 11 117
31.2114 -33.5904 0.00768108 33 13 100
31.1471 -28.7298 0.00604769 67 57 109
31.0769 -24.4831 0.026121 81 84 108
31.4806 -47.0222 0.00923635 52 15 128
31.3481 -38.7175 0.0101994 44 11 121
31.2776 -34.1986 0.00884366 35 12 100
31.2127 -29.9452 0.00588649 50 38 102
31.4156 -42.9758 0.0108512 46 14 123
31.1469 -23.731 0.0269063 43 115 64
31.4823 -47.0942 0.00835999 52 15 128
31.4139 -42.905 0.0107191 47 13 123
31.3469 -38.5167 0.00944673 44 11 120
31.2826 -34.4046 0.00947537 35 13 103
31.2104 -30.0103 0.00697823 50 38 102
31.5517 -51.4826 0.00842027 53 19 131
31.1444 -23.6644 0.0193936 45 117 67
31.6217 -51.2086 0.00799922 52 18 128
31.5545 -46.6872 0.00876766 52 13 128
31.4151 -37.8495 0.00841468 43 11 118
31.3491 -33.5913 0.00899271 33 13 100
31.4799 -42.4319 0.0122121 47 13 123
31.28 -29.0694 0.00684659 64 55 107
31.2023 -24.8133 0.0222374 68 72 91
31.6176 -46.6875 0.00913717 52 13 128
31.5564 -42.5673 0.00968902 47 13 123
31.4162 -33.457 0.00686915 33 10 98
31.6844 -51.0745 0.0096798 52 18 128
31.4824 -38.1758 0.010371 45 13 122
31.3462 -29.0665 0.00729625 64 54 107
31.2794 -24.953 0.028339 37 47 63
31.6846 -51.0054 0.0080397 52 18 128
31.6199 -46.7574 0.0098601 52 13 128
31.5475 -42.497 0.010511 46 13 123
31.4143 -33.3872 0.008695 32 12 97
31.3482 -29.1343 0.00614913 63 52 107
31.282 -24.8821 0.0301751 32 41 56
31.4824 -38.2497 0.0118065 44 12 121
31.6164 -42.1642 0.00914202 44 15 124
31.5524 -37.9138 0.0100131 42 13 119
31.6883 -46.4176 0.00969337 53 14 129
31.4805 -33.6599 0.00911873 34 12 99
31.4153 -29.3421 0.00665065 62 51 108
31.335 -25.0889 0.0280612 18 41 43
31.8187 -51.4103 0.00658321 52 18 130
31.687 -42.5713 0.00986982 47 15 126
31.6198 -38.1769 0.010674 43 15 118
31.5523 -33.7926 0.00977398 31 13 98
31.3955 -24.9498 0.0349632 50 110 79
31.7485 -47.0192 0.00955584 52 13 128
31.481 -29.405 0.00692007 61 50 108
31.8883 -51.479 0.00772746 53 19 131
31.8182 -47.0925 0.00869214 52 13 128
31.7467 -42.7067 0.00964207 48 14 126
31.6855 -38.252 0.00975894 43 15 117
31.62 -33.8594 0.00857969 29 15 97
31.4724 -25.0757 0.0367989 47 118 75
31.5503 -29.4737 0.00762951 60 50 106
31.8878 -51.4111 0.00816887 53 19 131
31.755 -42.9068 0.0086412 47 13 125
31.6847 -38.048 0.00857281 41 14 117
31.6169 -33.795 0.00789109 29 14 97
31.5534 -29.5408 0.0065562 59 49 106
31.4792 -25.2923 0.0330807 49 100 81
31.8888 -45.6751 0.0089795 50 13 127
31.6853 -32.984 0.00858036 29 18 93
31.6169 -28.594 0.00547742 63 64 105
31.7496 -37.1633 0.00980634 36 13 107
31.9557 -49.9927 0.00722427 50 17 130
31.8165 -41.4882 0.0098496 45 12 126
31.6851 -32.9147 0.00885188 29 21 94
31.7581 -37.2319 0.010253 37 13 108
31.6185 -28.663 0.00644657 63 62 106
31.888 -41.15 0.0105549 45 11 124
31.7498 -32.6471 0.00742416 30 37 99
32.0202 -50.2644 0.0104584 50 18 129
31.9537 -45.3993 0.00972995 50 13 127
31.8157 -36.896 0.0107515 37 11 105
31.6849 -28.8655 0.00645417 59 64 101
32.2938 -52.3552 0.00742797 48 13 129
32.0897 -51.4099 0.00720816 52 18 130
32.0202 -47.1611 0.00956682 51 14 128
31.9567 -43.111 0.00868309 49 12 126
31.8863 -38.8544 0.00964939 43 11 118
31.754 -30.0821 0.00693671 33 55 83
31.8176 -34.3278 0.00943163 27 49 107
31.7217 -25.921 0.0352541 46 116 80
32.1541 -51.4809 0.00644116 53 19 131
32.0873 -47.2259 0.00933801 51 14 128
31.9549 -38.6495 0.0103962 40 13 119
31.8203 -30.1472 0.00740381 42 82 95
31.8878 -34.3985 0.00960168 25 55 107
32.2254 -51.5498 0.00706654 55 18 131
32.0909 -42.7699 0.0107552 48 12 126
32.0196 -38.521 0.0100046 41 14 121
31.8877 -30.2137 0.00655606 40 87 90
31.9579 -34.4659 0.0103955 25 57 108
32.1552 -42.7012 0.00973847 47 13 126
32.0891 -38.1802 0.00909207 40 12 116
31.9565 -29.3391 0.00792065 38 106 88
32.2233 -46.9569 0.00990376 52 13 128
32.0189 -33.9256 0.00925351 18 54 103
32.1566 -29.7443 0.0263462 34 91 88
32.4249 -52.7609 0.00693603 226 154 250
32.3589 -48.2373 0.00813941 51 18 129
32.2921 -43.9864 0.0102373 47 13 126
32.2256 -33.9971 0.0089106 17 54 103
24.5265 -26.9765 0.00755577 120 124 125
24.8684 -49.3853 0.0056539 114 101 249
24.8016 -45.1329 0.00705357 113 84 254
24.732 -40.8816 0.00871061 117 85 243
24.6673 -35.4782 0.0094881 123 92 237
24.597 -31.233 0.00829325 113 84 200
32.2962 -46.9575 0.0100501 52 13 128
32.8329 -51.2075 0.00765188 56 18 139
32.6988 -43.1778 0.0102767 50 13 129
32.6271 -39.058 0.00919129 44 11 121
32.5014 -42.4323 0.00951284 47 14 127
32.427 -38.1817 0.0102025 40 11 117
33.0402 -47.6297 0.0084075 49 14 132
32.9022 -39.1269 0.010073 41 12 120
32.9765 -43.2424 0.0106413 48 13 133
32.9667 -51.8133 0.00708001 59 18 140
32.8986 -47.2914 0.00853415 51 13 132
32.7628 -41.9603 0.00965972 47 13 126
32.6984 -37.7101 0.0095263 40 16 112
33.0988 -49.9913 0.0088009 46 18 129
32.9656 -40.8802 0.0106748 46 12 125
33.303 -49.3859 0.00953255 49 16 133
33.2411 -45.1369 0.0099938 50 11 130
33.1719 -40.6088 0.00923325 44 13 125
33.3011 -44.7932 0.00954748 50 12 131
33.2384 -40.5438 0.00878001 46 14 125
33.4388 -53.3028 0.0064193 178 104 225
33.3732 -48.9099 0.0101877 51 18 135
33.3047 -44.7298 0.00960909 50 12 131
33.2404 -40.3379 0.00994076 45 13 124
33.5048 -53.0295 0.00733897 239 178 255
33.4416 -48.5098 0.00801361 51 16 134
33.3013 -40.7469 0.00986659 46 14 125
33.3719 -44.2519 0.0101794 50 11 130
33.6444 -52.1496 0.00775514 67 18 144
33.5765 -47.5593 0.00990993 52 12 134
33.5074 -43.3128 0.010286 47 11 126
33.441 -38.7902 0.0106972 40 12 115
33.6457 -52.2184 0.00734783 63 18 146
33.5772 -47.4973 0.00956567 53 13 135
33.4442 -38.9923 0.00806498 42 10 119
33.5048 -43.1086 0.0114999 48 11 125
33.7111 -51.8141 0.00765434 68 19 145
33.6458 -47.5624 0.00920743 52 13 132
33.5042 -39.2613 0.0093929 43 14 122
33.9095 -52.219 0.00792159 54 9 131
33.846 -47.0934 0.0102458 53 13 135
33.7768 -42.8374 0.009442 48 11 127
33.7128 -38.3154 0.0094295 26 58 118
34.183 -52.2207 0.0081686 52 10 134
34.1217 -47.7637 0.0105458 52 12 137
33.9788 -38.9929 0.00908306 23 16 90
34.1836 -52.2882 0.00673749 49 8 130
34.0427 -43.4456 0.00989652 45 12 127
33.9774 -38.9241 0.00889706 0 0 70
34.2495 -47.835 0.00956002 53 14 139
34.1769 -43.4405 0.00920699 46 13 128
34.1159 -39.2559 0.0100009 42 27 115
34.455 -53.3659 0.00675228 196 106 242
34.3881 -47.2975 0.00981962 52 11 139
34.3173 -42.9047 0.00997738 45 12 127
34.6567 -53.2366 0.00707387 205 119 255
34.5861 -48.9768 0.0093177 52 13 138
34.5173 -44.4554 0.0101263 51 13 130
34.4546 -40.2012 0.00832789 41 12 119
34.6634 -43.3776 0.00960652 46 11 127
34.5915 -39.127 0.00936512 24 59 124
34.7246 -48.2354 0.00950633 51 12 139
34.86 -52.5595 0.00750666 207 141 249
34.7888 -48.0345 0.00941524 52 13 139
34.7257 -43.781 0.00957971 46 11 127
34.6612 -39.1949 0.0105485 24 59 124
34.9268 -52.2212 0.00838545 48 12 138
34.7247 -39.1921 0.00930897 22 60 126
35.1972 -52.288 0.0080414 52 10 138
35.125 -48.0372 0.00886105 52 13 138
35.0617 -43.5143 0.00988687 44 9 125
35.1999 -45.6729 0.00909558 51 12 131
35.1278 -41.4188 0.00963542 41 14 122
35.2622 -50.5334 0.00980075 54 15 138
35.2675 -46.0815 0.00924251 50 11 128
35.2032 -41.4916 0.00923977 42 13 123
35.3997 -50.2653 0.00863186 52 13 138
35.3297 -45.7424 0.00988622 51 11 133
35.2597 -41.4842 0.00982549 41 12 122
35.5338 -52.9634 0.00736011 224 137 250
35.4683 -50.3993 0.00893832 52 13 140
35.398 -46.0095 0.0101419 50 11 130
35.3269 -41.8931 0.0101345 45 11 124
35.5266 -49.3872 0.0102679 50 11 136
35.4641 -45.3363 0.0105345 50 11 130
35.3997 -41.0858 0.00967261 42 10 119
35.7359 -48.1048 0.010244 54 14 137
36.0727 -52.7612 0.00766334 217 150 255
35.9316 -43.3773 0.00988211 45 10 126
36.3422 -52.8254 0.00790757 229 147 253
36.2665 -48.2369 0.0107183 52 11 137
36.2045 -43.988 0.00865223 45 10 130
36.6168 -53.1631 0.00713268 226 127 254
36.5467 -52.8929 0.0075519 229 147 255
36.412 -44.1182 0.0101741 44 9 129
36.8826 -53.1652 0.00789998 215 126 254
36.7459 -44.8666 0.00971258 49 11 130
37.0771 -48.7752 0.0100565 47 11 137
37.0164 -44.3865 0.0101034 45 10 128
37.1475 -52.2197 0.00873427 46 7 134
37.0191 -44.4596 0.00921644 46 11 129
37.0888 -53.0987 0.00727732 224 140 254
36.9538 -44.327 0.0117356 46 11 129
38.1643 -53.2997 0.00816495 204 128 254
38.0349 -44.53 0.0113417 42 9 125
38.1002 -49.045 0.0105117 48 11 139
40.3908 -53.0308 0.00834942 215 134 252
40.319 -49.5227 0.00897418 46 9 140
40.2504 -45.2669 0.00989427 42 11 128
40.6649 -52.0204 0.00879539 51 9 147
40.592 -47.967 0.0111523 42 7 133
40.8017 -52.2199 0.00797887 50 12 151
40.7401 -48.1082 0.0113672 42 7 133
40.8684 -49.6577 0.00919962 44 12 137
40.8065 -45.3987 0.0108107 43 11 123
41.4036 -45.7361 0.0115495 45 14 124
41.6784 -45.8741 0.0097972 72 46 143
41.7449 -50.3274 0.00950842 45 10 140
41.6748 -45.8043 0.0105598 133 108 199
41.7449 -50.3931 0.00899708 45 10 140
42.4159 -49.8576 0.0101271 47 12 142
42.6909 -53.4364 0.00893978 165 109 255
42.9596 -49.9935 0.00956795 44 11 142
26.6242 -42.9739 0.00878939 35 14 107
26.4909 -33.8624 0.0103937 28 14 93
26.7589 -51.4785 0.00642007 33 55 100
26.6906 -47.2211 0.00897302 37 15 108
26.5511 -38.1117 0.0110486 36 13 105
26.4171 -29.6078 0.00882678 24 15 80
26.3538 -25.356 0.0064844 102 101 112
25.8136 -42.6324 0.00861222 36 14 105
25.7444 -36.4255 0.0096269 27 14 94
25.6823 -32.1761 0.00953559 24 14 83
25.8797 -46.8891 0.00760306 39 15 113
25.6079 -27.6496 0.0080767 104 106 119
19.5376 -28.126 0.00841371 221 215 179
19.4683 -23.8722 0.00777878 130 131 116
33.9768 -50.2643 0.00918752 50 15 135
33.9125 -46.0093 0.00927087 51 13 132
33.8505 -42.5036 0.00935835 46 11 127
33.7768 -38.251 0.00975674 20 58 120
26.0838 -50.4658 0.00579665 23 57 88
25.9498 -42.164 0.0083329 34 15 105
25.8771 -37.7721 0.0102214 29 14 97
25.7443 -28.3909 0.00693801 71 66 100
25.6786 -24.003 0.00589039 101 99 105
25.8142 -33.3889 0.00957581 25 13 87
26.0105 -46.5508 0.00855826 41 14 112
28.3762 -46.3516 0.00834733 44 16 118
28.2464 -37.5704 0.00823637 34 13 106
28.1747 -33.521 0.00915901 29 15 96
28.1071 -29.2712 0.007456 57 51 98
28.4443 -50.6012 0.00675156 38 24 109
28.3077 -41.8213 0.0100641 39 13 113
28.0389 -24.7476 0.0122609 90 87 106
28.4448 -50.6703 0.00708455 38 24 109
28.3086 -41.8967 0.0102458 39 13 112
28.24 -37.5044 0.00995809 34 13 105
28.109 -29.2049 0.00706414 56 50 96
28.1718 -33.5933 0.0100035 29 14 95
28.0367 -24.8187 0.0118191 88 87 105
28.5794 -46.0082 0.00770696 50 14 122
28.5127 -41.6255 0.00950343 40 14 115
28.4423 -37.708 0.00921304 35 14 109
28.3751 -33.3206 0.00752066 31 13 97
28.3091 -28.9296 0.00711617 67 60 101
28.2442 -24.5391 0.0115473 87 88 106
28.6488 -50.4663 0.00694365 39 20 110
28.5804 -45.9429 0.00779212 50 14 122
28.5182 -41.6925 0.0105974 40 14 115
28.4398 -37.6377 0.0116779 34 14 107
28.3751 -33.3865 0.00812631 31 13 97
28.2391 -24.6158 0.0104832 87 88 106
28.3105 -28.8638 0.00744996 72 65 106
28.5159 -46.4145 0.00914989 46 15 119
28.4405 -41.5561 0.00952447 39 13 112
28.243 -28.7965 0.0068661 74 65 107
28.1737 -23.9408 0.0127377 84 85 102
28.3796 -37.3033 0.0108838 35 13 105
28.3056 -33.0489 0.0091577 29 14 96
28.5139 -46.3472 0.00797599 47 15 120
28.4459 -41.6245 0.00929264 39 13 112
28.3767 -37.2339 0.00882776 34 13 105
28.3084 -33.1189 0.00960737 29 14 97
28.5818 -50.7339 0.0066538 39 23 110
28.2424 -28.7311 0.00799762 72 65 106
28.1698 -23.9991 0.0132723 87 84 103
28.4445 -41.6902 0.00946488 39 13 112
28.3751 -37.4333 0.00869763 35 14 107
28.3083 -32.9126 0.00961851 29 14 95
28.2411 -28.6652 0.00697344 72 67 107
28.1768 -24.0723 0.0130139 87 84 103
28.6481 -46.4798 0.00793462 49 13 120
28.5806 -42.3645 0.00866326 40 14 113
28.5121 -37.9711 0.0107737 35 13 108
28.4458 -32.7139 0.00902329 30 16 95
28.3115 -24.2108 0.0115169 87 86 104
28.7169 -50.8705 0.00630814 35 19 107
28.3806 -28.3248 0.00671488 77 74 109
28.5781 -41.8899 0.00957873 40 14 113
28.5122 -37.6427 0.009477 34 13 107
28.4435 -33.0494 0.00867808 29 14 96
28.2981 -24.2794 0.0123345 86 85 103
28.3759 -28.7965 0.00696507 70 65 105
28.8493 -46.6855 0.00731747 46 15 119
28.7821 -42.4272 0.00968757 40 12 115
28.7123 -37.5694 0.00963553 35 14 109
28.6468 -33.3191 0.0093616 30 14 96
28.5806 -29.0688 0.00832642 57 49 96
28.5189 -24.8116 0.0124786 83 84 102
28.7155 -37.7758 0.00962464 35 14 109
28.9176 -51.0083 0.00693995 36 17 106
28.6493 -33.3889 0.00997306 30 14 98
28.5815 -29.0008 0.00825967 62 55 99
28.5198 -24.6059 0.0117314 86 84 103
28.7159 -37.7092 0.0101266 35 14 109
28.647 -33.4605 0.00944121 32 14 98
28.8508 -46.55 0.0085941 47 15 119
28.7811 -42.2947 0.00982939 40 12 115
28.5134 -24.6872 0.0143611 85 84 103
28.5813 -28.9347 0.00687779 71 64 106
28.9177 -53.2986 0.0052551 154 61 181
28.7127 -40.6118 0.00955894 37 12 112
28.5823 -32.1046 0.00900625 28 15 95
28.5128 -27.7195 0.00723979 74 73 107
28.6516 -36.224 0.0100789 32 14 106
28.4414 -23.5304 0.0116807 82 82 100
28.8514 -44.4579 0.00826705 45 14 118
28.7819 -40.0659 0.0100614 38 12 112
28.65 -31.2265 0.00762292 27 16 90
28.5789 -26.8393 0.00609384 86 86 108
28.7176 -35.6158 0.0102242 33 12 105
28.9863 -53.1633 0.00504659 204 106 235
28.9133 -48.9126 0.00749327 44 18 117
28.8472 -44.3888 0.00866719 45 14 118
28.7821 -40.1379 0.00990962 39 12 113
28.648 -31.2942 0.00842503 27 15 89
28.7118 -35.546 0.0114563 32 13 104
28.5801 -26.7717 0.00677187 86 87 108
28.8528 -44.5942 0.00935635 46 14 118
28.7832 -40.2036 0.0106308 38 12 113
28.7175 -35.4854 0.00964279 32 13 103
28.6497 -31.0947 0.00902132 27 17 90
28.5772 -26.9758 0.00726815 81 82 106
29.0519 -51.548 0.00583797 22 21 101
28.9869 -48.5741 0.00755993 42 18 117
28.9151 -44.3195 0.00972233 45 14 118
28.7808 -35.5496 0.0100635 32 13 103
28.7133 -31.4983 0.00730832 27 13 88
28.853 -39.803 0.0111195 40 14 113
28.6483 -27.2463 0.00732031 78 75 106
36.6159 -50.0606 0.0104297 51 12 137
29.1202 -51.6112 0.00589034 20 18 101
28.9836 -44.1185 0.00935274 46 13 118
28.8497 -35.6161 0.00927994 31 14 103
28.7854 -31.3626 0.00807689 27 15 89
28.9143 -39.8661 0.0118703 40 12 112
28.7158 -27.0436 0.00673306 80 78 107
29.1214 -51.5435 0.00586469 24 19 103
28.9159 -39.9302 0.0107079 40 13 113
28.8497 -35.5487 0.00953246 30 14 103
28.9862 -44.3246 0.0100366 46 13 118
28.7834 -31.1605 0.0088479 28 16 90
28.7136 -27.2445 0.00689807 78 73 103
29.1215 -47.2279 0.0077798 43 17 116
28.9854 -40.0038 0.0110213 42 13 113
28.914 -35.6163 0.00872306 30 14 103
28.852 -31.2306 0.00776456 28 16 90
28.7831 -26.841 0.00655548 83 80 107
28.9162 -35.2782 0.0104352 31 14 103
29.1852 -51.8184 0.00637357 48 56 131
29.1227 -47.5634 0.00746658 43 17 116
29.0496 -43.314 0.00925766 45 14 118
28.9882 -39.5275 0.00945494 39 13 114
28.8493 -31.0275 0.00772235 28 16 90
28.7816 -26.771 0.00676649 87 83 110
29.0559 -43.2426 0.0089662 45 14 118
28.9885 -39.5981 0.00952265 39 13 114
28.914 -35.2082 0.00834799 30 14 103
28.849 -31.0924 0.007932 28 16 90
28.782 -26.7066 0.00683457 87 83 109
29.256 -52.2234 0.00631531 26 15 117
29.0506 -39.0596 0.00933886 40 13 116
28.9172 -30.7541 0.00782917 26 14 85
28.985 -35.1409 0.00972214 29 15 103
28.851 -26.366 0.00617312 81 77 105
29.1885 -47.9026 0.00762878 42 16 117
29.1238 -43.3768 0.0105418 45 14 119
29.0547 -39.1247 0.0103024 40 13 116
28.9883 -35.0743 0.00930241 29 15 103
28.9165 -30.8213 0.00885133 26 14 86
28.8484 -26.3008 0.00625206 83 79 106
29.2544 -52.0844 0.00576187 47 50 134
29.1863 -47.6972 0.00738233 43 17 116
29.1181 -43.5775 0.00903321 46 13 118
29.0521 -39.1931 0.00930771 40 15 117
28.9864 -35.0076 0.00971799 30 14 103
28.9151 -30.6239 0.00906191 26 15 84
28.8495 -26.5031 0.00631892 82 78 104
29.2576 -47.7018 0.0086228 41 17 115
29.1233 -39.1913 0.0112557 38 13 115
29.0515 -34.9446 0.00992295 30 14 103
28.9855 -30.62 0.00741279 25 14 83
28.9158 -26.3681 0.00662527 82 77 106
29.1881 -43.444 0.0122231 45 13 120
29.3224 -51.9489 0.0069481 50 55 137
29.2529 -47.7647 0.00877614 42 16 115
29.1206 -39.2576 0.00943489 39 14 116
29.0514 -34.8738 0.00859658 30 14 102
28.9857 -30.6904 0.00829805 25 14 83
28.9173 -26.3007 0.00625152 81 77 105
29.2589 -47.5647 0.00855303 42 16 115
29.1217 -38.7875 0.0106147 39 14 116
29.1849 -43.3112 0.0102408 45 13 120
29.0552 -34.5362 0.0101339 33 15 101
28.9863 -31.0266 0.00873922 27 14 86
28.916 -26.7726 0.00650747 85 81 108
29.3872 -52.2204 0.0057844 25 12 120
29.1846 -38.856 0.0081128 38 15 116
29.1193 -34.5997 0.00854284 33 14 101
29.0541 -30.3547 0.00729318 26 13 84
28.9851 -26.5689 0.00643359 85 80 105
29.3231 -47.7637 0.00754756 42 17 117
29.1863 -38.9256 0.0106335 39 14 116
29.1216 -34.5359 0.0109747 34 14 101
29.0514 -30.1456 0.00769289 26 14 85
29.2518 -43.308 0.0109967 45 13 120
28.9851 -26.7734 0.00713405 83 79 105
29.3215 -46.078 0.00901127 50 14 122
29.2526 -41.7571 0.010943 41 13 116
29.1851 -37.4994 0.00880862 36 14 110
29.1218 -33.2545 0.00845931 29 14 97
29.0504 -28.9983 0.00684094 68 62 109
28.9848 -23.6008 0.0116367 80 79 100
29.3194 -42.3651 0.0078824 41 13 116
29.2572 -37.906 0.0110881 38 12 113
29.1889 -33.52 0.00899635 29 14 99
29.0477 -24.7384 0.0127224 86 83 104
29.1225 -29.1386 0.00793693 62 53 104
29.4584 -51.2112 0.00712761 40 18 116
29.3873 -46.6889 0.00881383 46 15 119
29.2576 -37.842 0.0100304 38 12 113
29.1847 -33.5924 0.0074017 29 14 99
29.0475 -24.8119 0.0120166 85 82 103
29.1205 -29.0721 0.00784561 66 59 107
29.3874 -42.5031 0.00918196 41 13 116
29.2568 -33.3867 0.00954706 29 14 98
29.1866 -29.1347 0.00654239 62 53 104
29.1251 -24.8904 0.0143982 84 81 102
29.321 -38.2488 0.0114036 38 14 112
29.5235 -46.481 0.00841261 49 13 121
29.4614 -42.0965 0.00933022 43 12 116
29.3862 -37.9794 0.0101915 36 12 113
29.3219 -33.5906 0.00866374 30 14 99
29.2551 -29.4059 0.00723924 54 47 98
29.1919 -25.0121 0.0111601 83 80 101
29.5916 -50.6687 0.00738785 42 18 114
29.5287 -46.4157 0.00740981 49 13 121
29.3871 -37.9101 0.00990908 35 13 113
29.3213 -33.656 0.00896409 29 14 99
29.2527 -29.3366 0.00777037 54 47 98
29.1897 -25.0868 0.013041 81 79 100
29.4623 -42.1645 0.0112342 43 12 116
29.6594 -50.5328 0.00544722 42 18 116
29.5288 -42.2347 0.00953418 44 13 117
29.4589 -37.9788 0.0100412 35 13 113
29.389 -33.4556 0.00901513 30 14 97
29.3235 -29.2038 0.00664535 59 51 102
29.2604 -25.1428 0.0119888 82 79 100
29.5957 -46.2123 0.00833294 52 13 122
29.5227 -42.2935 0.0100757 44 13 117
29.4625 -37.9109 0.00935786 35 13 113
29.3872 -33.5219 0.00917383 31 14 98
29.2555 -25.2181 0.0142756 83 80 101
29.3224 -29.1343 0.00722666 66 57 108
29.6587 -50.9373 0.00585606 42 18 116
29.5184 -41.825 0.0107106 44 12 116
29.4574 -37.5728 0.00903679 35 13 112
29.3852 -33.3186 0.00848371 29 14 97
29.3205 -29.0683 0.00855237 69 60 110
29.2537 -24.2069 0.0129563 81 79 100
29.7264 -50.33 0.00803127 43 19 117
29.6566 -46.0816 0.00953854 52 13 122
29.5248 -38.042 0.00922632 36 14 114
29.4604 -33.7935 0.010163 30 15 99
29.5884 -41.8277 0.011597 44 13 117
29.3871 -29.5407 0.0074381 51 45 98
29.3214 -25.2989 0.012499 81 82 102
29.7264 -51.2084 0.00601613 45 19 118
29.6604 -46.8211 0.00919776 46 15 119
29.5241 -37.4388 0.00984031 35 13 111
29.3235 -24.273 0.0119892 82 78 101
29.5971 -42.4335 0.0113986 44 13 117
29.4588 -33.0484 0.00944121 28 14 96
29.3875 -28.6635 0.00719384 73 66 107
29.588 -42.5022 0.00977062 44 13 118
29.4617 -33.1185 0.0083103 28 14 95
29.3866 -28.5946 0.00679896 74 68 108
29.6614 -46.7524 0.00987351 47 14 120
29.5259 -37.3739 0.0104585 35 13 111
29.3123 -24.351 0.0115076 82 80 102
29.5916 -38.113 0.010243 36 13 114
29.5225 -33.1158 0.00932572 27 14 96
29.4592 -28.7321 0.00672297 73 66 107
29.6611 -42.5021 0.0106374 45 13 119
29.3929 -24.3448 0.0137196 82 78 103
29.7969 -51.0739 0.00625248 45 19 118
29.6571 -42.5676 0.0103266 45 13 120
29.5911 -38.3163 0.00944774 36 14 114
29.7256 -46.8196 0.01013 47 15 119
29.3733 -24.4086 0.0140768 82 79 103
29.5251 -32.9159 0.00921649 30 15 95
29.4612 -28.6663 0.00718593 74 67 109
29.727 -46.7559 0.0084113 47 14 119
29.5249 -32.9853 0.00904487 29 15 97
29.593 -38.245 0.0115441 36 14 114
29.4593 -28.5964 0.00701896 74 69 110
29.388 -24.4791 0.0116422 82 79 103
29.7995 -46.5526 0.00884895 47 15 122
29.7289 -42.1637 0.00954403 44 13 117
29.6612 -38.047 0.00908938 36 14 114
29.5962 -33.659 0.0096323 32 14 100
29.4712 -24.5455 0.0138965 84 80 103
29.5242 -28.9323 0.00688958 70 63 107
29.8631 -51.3425 0.00615294 46 18 120
29.7269 -42.2333 0.00899333 44 13 117
29.6583 -37.9787 0.0096782 36 15 114
29.5251 -28.8648 0.00754581 71 64 106
29.5903 -33.7243 0.00989534 32 14 100
29.4566 -24.6126 0.0132893 85 81 104
29.8639 -46.8903 0.00811726 47 16 120
29.7266 -38.0454 0.00907494 35 15 114
29.6618 -33.5221 0.00801343 32 14 100
29.5925 -29.2695 0.00747715 60 51 104
29.5234 -24.6785 0.0122758 85 81 104
29.9285 -51.2069 0.00619683 44 18 119
29.8029 -42.3681 0.00917463 46 13 118
29.7274 -37.9795 0.0107398 35 15 114
29.6604 -33.5958 0.0100685 33 15 101
29.5931 -29.2031 0.00788086 64 56 107
29.5278 -24.7441 0.0142952 85 81 104
30.0662 -53.5699 0.00599549 85 10 159
29.9965 -49.3174 0.00777964 45 18 122
29.9286 -45.0662 0.00886266 50 12 121
29.8661 -40.8154 0.00895982 43 12 115
29.7954 -36.496 0.00903448 35 14 107
29.59 -23.7406 0.0122757 80 78 100
29.7266 -32.2369 0.00984393 28 14 92
29.6589 -27.9869 0.0070606 73 66 107
29.9328 -46.8874 0.00791858 47 16 121
29.8645 -42.5013 0.0106743 48 13 120
29.5972 -24.8826 0.0121768 84 80 103
29.7268 -33.6591 0.00937166 33 15 101
29.7948 -38.0431 0.012819 36 14 114
29.6608 -29.2723 0.00705748 60 51 104
29.9973 -51.3415 0.00654694 44 18 119
29.6594 -29.2046 0.00759885 63 55 106
29.7259 -33.7248 0.0100185 32 14 101
29.7972 -37.9805 0.0108003 35 15 114
29.59 -24.9497 0.0158246 82 79 102
30.0641 -51.3435 0.00608158 48 17 120
30.0007 -46.9565 0.00826465 47 16 120
29.862 -38.18 0.00929442 39 15 116
29.8002 -33.7259 0.0080961 31 16 101
29.727 -29.339 0.00710756 57 47 100
29.6634 -24.9426 0.0108454 83 79 102
29.9945 -46.8861 0.00900525 48 15 121
29.8639 -38.3876 0.0102334 40 16 114
29.6617 -25.0156 0.014163 83 79 101
29.7984 -33.5236 0.0102558 32 14 98
29.93 -42.6346 0.0108914 48 12 120
29.7282 -29.2693 0.00746758 61 52 104
30.063 -46.9544 0.00899726 48 15 121
29.997 -42.7058 0.0081077 49 11 120
29.8643 -33.9291 0.0087982 33 14 104
29.9295 -38.1804 0.0114903 42 15 116
29.7226 -25.0859 0.0146807 81 78 102
29.7955 -29.3376 0.00843726 58 48 100
29.999 -42.2968 0.0101317 45 12 117
29.9337 -38.0476 0.00970544 40 14 115
29.8623 -33.7921 0.00895141 32 16 99
29.7976 -29.4749 0.00732587 53 44 99
30.064 -46.5511 0.00929934 48 15 122
29.7233 -25.2202 0.0124699 79 79 103
30.2005 -51.748 0.00574765 51 18 125
30.0649 -42.3615 0.0102739 45 12 118
29.996 -38.11 0.00895883 41 14 116
29.9269 -33.5889 0.00803388 30 15 100
29.8059 -25.2916 0.0132422 81 81 106
29.8636 -29.3367 0.00798166 58 48 101
30.1353 -47.4316 0.00778025 48 17 121
30.0628 -42.4298 0.0096484 47 13 120
30.0029 -38.0474 0.00848621 41 14 116
29.935 -33.6619 0.00936617 30 16 99
29.8643 -29.2731 0.00876363 62 52 104
29.7865 -25.3581 0.01349 82 82 106
30.2661 -51.5432 0.00720563 51 18 125
30.1294 -43.0431 0.00860829 50 12 123
30.0655 -38.1798 0.00996762 41 13 116
29.9984 -33.9299 0.0085862 33 13 102
29.9295 -29.6765 0.00716836 54 45 101
30.196 -47.2923 0.0111081 48 16 123
29.862 -25.424 0.0152222 80 81 107
30.2678 -48.1718 0.00878695 46 17 123
30.1296 -39.3944 0.00862059 42 14 116
30.0669 -33.1858 0.00836741 28 15 95
30.1989 -43.6449 0.00991716 49 12 125
29.9966 -28.9348 0.00623892 68 59 106
29.935 -24.4093 0.0148234 80 76 101
30.3363 -52.4887 0.00594786 157 105 206
30.2724 -48.1081 0.00883822 46 17 123
30.135 -39.3269 0.0103177 42 14 116
30.0611 -33.2536 0.00916246 29 14 95
29.9984 -28.8654 0.0072554 69 61 106
29.9327 -24.467 0.0126968 79 77 101
30.1976 -43.7158 0.0107188 48 11 124
30.1975 -43.7854 0.0100945 48 11 125
30.0626 -33.0493 0.00924253 29 13 94
30.1285 -39.5317 0.0109889 42 14 117
29.9987 -28.8002 0.00724411 71 62 107
29.9326 -24.5424 0.0136133 77 78 100
30.4015 -52.493 0.00603808 168 112 211
30.3374 -47.7667 0.00787897 48 16 123
30.2682 -43.3743 0.0099651 49 12 125
30.1964 -39.26 0.0101882 43 12 116
30.0658 -29.067 0.00685745 67 58 107
30.1338 -34.8728 0.0102619 33 13 104
29.9855 -24.6937 0.0119834 78 77 103
30.3349 -43.4473 0.00897692 49 12 126
30.2664 -39.0636 0.00993279 43 12 116
30.1334 -30.553 0.00775816 27 15 89
30.0586 -24.7542 0.0132749 80 76 103
30.1993 -34.9403 0.0102588 35 14 107
30.4735 -52.3539 0.00652854 56 7 116
30.3361 -43.5162 0.00954647 49 12 126
30.2688 -39.2575 0.0101501 43 12 116
30.1966 -34.7358 0.00928946 33 13 104
30.1319 -30.4834 0.00691397 28 15 89
30.4021 -48.106 0.0096273 45 16 122
30.0656 -24.8112 0.0131906 80 76 103
30.4753 -47.427 0.00868359 46 17 124
30.4047 -43.0402 0.0109969 46 14 126
30.3324 -38.8548 0.0100488 42 14 117
30.27 -34.4691 0.00847462 34 13 105
30.1967 -30.3504 0.00726233 38 25 92
30.1408 -25.9606 0.0120125 75 72 102
30.5363 -51.5461 0.00836233 50 16 128
30.6025 -51.4098 0.00649625 49 16 126
30.5375 -47.1607 0.00791862 46 17 123
30.4718 -42.6331 0.00967974 47 13 123
30.4029 -38.3833 0.00993931 37 13 116
30.3357 -33.7946 0.00823564 32 11 102
30.2685 -29.5404 0.00704032 52 44 97
30.194 -25.0242 0.0134979 76 75 101
30.6058 -51.2751 0.00728957 49 17 125
30.4022 -38.5194 0.00931563 40 13 118
30.3362 -33.6573 0.00825328 31 12 102
30.5385 -47.0259 0.00921746 48 16 123
30.2709 -29.4067 0.0069533 59 49 102
30.204 -25.1581 0.0139909 76 75 101
30.5399 -42.8331 0.0101277 48 13 125
30.4749 -38.3157 0.00984615 36 13 117
30.4004 -34.0611 0.00827646 35 12 103
30.2715 -25.2158 0.0129281 79 75 102
30.6743 -50.6014 0.00929611 51 16 127
30.3354 -29.4731 0.00678946 54 45 98
30.6044 -42.4962 0.00969833 48 11 124
30.4016 -29.4723 0.00708221 55 46 99
30.4753 -33.7249 0.010828 34 11 102
30.538 -38.2468 0.0106128 36 14 115
30.3291 -25.417 0.013181 78 73 102
30.807 -50.5326 0.00751348 49 18 125
30.7345 -46.4117 0.00940055 50 15 123
30.6059 -38.3828 0.0101639 38 15 117
30.5383 -33.9975 0.00817737 36 13 104
30.3999 -25.4901 0.0114998 76 71 101
30.4727 -29.8775 0.00799882 52 39 101
30.6763 -42.0956 0.00944182 46 12 122
30.6063 -38.3167 0.00945607 37 15 116
30.5389 -34.0627 0.00951592 36 13 104
30.4748 -29.8089 0.00687445 52 40 100
30.3989 -25.562 0.0139759 76 71 102
30.8108 -47.2292 0.00947252 49 15 124
30.6744 -38.4515 0.00918935 37 15 116
30.6047 -33.318 0.00907254 29 14 97
30.5368 -29.0681 0.00619563 65 56 108
30.4741 -24.5478 0.0129509 76 76 102
30.8737 -47.1596 0.00812232 49 15 125
30.8132 -42.9041 0.00913875 47 14 122
30.7395 -38.3842 0.0108419 40 13 118
30.6716 -34.1301 0.0089638 34 11 102
30.6044 -29.0024 0.00744519 66 58 107
30.5409 -24.7413 0.0153456 75 75 101
30.9398 -47.2968 0.00822975 51 15 125
30.8091 -38.1811 0.0107953 40 13 117
30.7379 -33.929 0.00883309 33 12 103
30.6728 -29.6771 0.00661731 51 41 99
31.0129 -51.5441 0.00689379 51 17 127
30.879 -42.4326 0.0102643 47 14 121
30.6012 -24.8175 0.0126555 74 76 101
31.0751 -51.6826 0.00764022 50 16 128
30.8725 -38.9871 0.00996389 43 11 118
30.8118 -34.6019 0.00917992 32 11 104
30.738 -30.4879 0.00799039 43 28 97
30.941 -43.1767 0.00986961 47 14 121
30.673 -26.1057 0.0154401 75 72 107
31.0749 -49.4535 0.00856439 46 18 123
31.0097 -44.9277 0.00958673 48 14 126
30.8747 -36.0866 0.00875246 37 12 113
30.7374 -27.3132 0.00578574 65 58 102
30.8115 -31.8373 0.00942222 30 13 91
30.9406 -40.6742 0.0120736 46 14 123
31.011 -44.9961 0.00924155 48 14 126
30.9391 -40.6097 0.00891398 47 14 122
30.8744 -36.1578 0.00836967 37 12 113
30.8103 -31.7677 0.0092011 28 14 89
30.7399 -27.3801 0.00633997 64 59 103
31.0118 -40.7501 0.00967037 46 14 123
30.9375 -36.4972 0.00933471 34 12 110
30.8751 -31.6305 0.0086167 28 14 89
30.807 -27.3808 0.00595501 65 59 103
31.2783 -47.4308 0.00833143 51 15 125
30.942 -27.7188 0.00587177 66 58 105
31.1458 -40.7466 0.0114758 45 13 122
31.0765 -36.4933 0.0108406 37 12 113
31.0088 -31.97 0.00917705 26 12 91
31.3497 -51.7512 0.0066847 55 18 131
31.2796 -47.6298 0.00821618 50 15 125
31.2154 -43.2391 0.00953921 46 14 125
31.1462 -40.6748 0.0112484 45 13 122
31.0749 -36.2893 0.00919791 38 12 113
31.0101 -32.1715 0.00711832 28 12 94
30.942 -27.7866 0.00607646 67 59 106
31.4161 -52.6926 0.00580944 217 146 248
31.2784 -43.9172 0.0111654 45 12 125
31.2101 -39.6649 0.00937595 44 12 121
31.1449 -35.6186 0.00935605 35 15 106
31.3494 -48.4409 0.0111959 49 15 125
31.0791 -31.3635 0.00904135 29 13 89
31.0081 -26.8444 0.0123371 64 62 101
31.6175 -52.0199 0.00624424 47 17 131
31.479 -43.2436 0.010372 46 14 123
31.3505 -34.9392 0.0085858 36 13 106
31.5552 -47.4954 0.00994693 52 16 126
31.2781 -30.4171 0.00777783 51 39 105
31.4118 -39.1908 0.0118546 45 12 121
31.2035 -26.156 0.014209 71 65 101
31.4774 -43.3125 0.00983461 46 14 123
31.4178 -39.1254 0.00924714 45 12 121
31.3464 -34.7358 0.00957217 37 12 106
31.2785 -30.6186 0.00752731 46 31 102
31.2126 -26.23 0.0128352 71 65 101
31.6189 -51.7505 0.00616599 52 18 131
31.5497 -47.2239 0.00920141 52 15 128
31.4815 -42.9744 0.00928518 47 14 123
31.4146 -38.3844 0.0103515 43 11 118
31.35 -34.131 0.00874649 36 13 101
31.2787 -29.6105 0.00655872 56 45 103
31.2135 -25.359 0.0142505 66 66 96
31.6867 -51.6144 0.00757239 52 18 131
31.6192 -47.2252 0.00902293 53 15 128
31.4802 -38.7204 0.00992912 43 13 121
31.413 -33.9942 0.00768029 33 13 100
31.3498 -29.6094 0.00717041 57 46 105
31.2764 -25.4826 0.0185296 66 65 97
31.6175 -47.2928 0.00944838 53 15 128
31.5498 -43.035 0.0094091 47 13 123
31.4802 -38.7903 0.00941863 42 13 121
31.3474 -29.6779 0.00743745 54 43 103
31.4176 -33.9267 0.0105556 33 13 100
31.279 -25.4207 0.0164549 67 65 96
31.7545 -51.2786 0.00706331 52 18 130
31.6162 -42.7031 0.0104479 47 13 123
31.555 -38.4499 0.00868482 42 10 119
31.4835 -34.1992 0.00957323 36 13 101
31.4155 -29.8764 0.00631559 48 36 98
31.3457 -25.633 0.015986 70 65 101
31.4117 -25.4963 0.0253194 54 62 83
31.754 -46.4829 0.00918548 51 14 128
31.8185 -50.8692 0.00913412 51 19 128
31.6857 -43.1057 0.00889746 47 13 123
31.616 -38.7223 0.00949052 44 12 120
31.5515 -34.3347 0.00892826 37 13 101
31.4815 -29.947 0.00682502 48 37 100
31.6801 -43.0362 0.0113725 47 13 123
31.6183 -38.7918 0.00915604 44 12 121
31.5521 -34.2678 0.00884622 37 14 100
31.4826 -30.0134 0.0062936 49 35 100
31.4178 -25.4154 0.0262763 29 40 57
31.8911 -50.8714 0.00821194 51 19 128
31.7524 -42.366 0.00906428 45 13 124
31.4882 -25.8234 0.0242358 66 65 89
31.6861 -38.582 0.0105367 43 12 117
31.5511 -30.0817 0.00833706 49 38 99
31.6177 -34.3302 0.00965932 33 15 99
31.8846 -51.8159 0.0068028 52 17 133
31.6878 -37.9075 0.0098423 40 13 116
31.6193 -33.6577 0.006878 30 14 97
31.5527 -29.1361 0.00693703 66 57 111
31.5167 -25 0.0363298 44 121 76
31.9575 -51.6848 0.00710308 52 18 131
31.8141 -43.1743 0.00989493 48 13 125
31.7533 -38.7925 0.0103511 43 11 118
31.6852 -33.5237 0.00739284 28 20 95
31.6189 -29.1348 0.00674026 70 65 113
31.8887 -47.3621 0.00836225 51 14 128
31.8181 -43.1115 0.0104041 47 13 125
31.6837 -33.4568 0.00856569 29 19 96
31.6197 -29.2017 0.00689733 71 64 113
31.752 -38.8555 0.0113377 44 11 118
31.9509 -47.0243 0.0091414 51 14 128
31.8895 -42.7687 0.0104577 49 13 127
31.7549 -34.2655 0.00888968 25 29 99
31.6845 -29.4039 0.00678827 51 54 91
32.0922 -45.6047 0.00969449 51 14 128
32.0181 -41.3511 0.0097482 46 12 125
31.9557 -37.0364 0.00956858 39 14 108
31.8871 -32.779 0.00769096 21 50 100
31.8213 -28.5279 0.00643646 49 104 92
32.1541 -49.8566 0.00834257 45 18 125
32.156 -47.3605 0.00820596 51 14 128
31.9513 -34.1319 0.00873208 22 55 106
32.0192 -38.853 0.0110934 41 12 120
31.8873 -29.741 0.00786224 33 92 93
32.2235 -51.6808 0.00786872 54 17 130
32.0886 -43.1705 0.0093631 49 12 126
32.0214 -38.9197 0.00988307 41 12 119
31.8878 -29.8117 0.00713434 30 87 87
31.9545 -34.0654 0.0093208 20 53 104
32.4228 -43.5773 0.00981745 48 12 129
32.1554 -38.9273 0.0101507 44 12 121
32.3579 -39.0618 0.00935189 45 11 121
32.0905 -34.3981 0.0075931 21 58 108
32.0231 -30.1487 0.0110807 31 89 91
32.4951 -47.8339 0.011509 52 15 129
32.2186 -43.1737 0.0112523 46 12 125
32.4273 -52.2248 0.00759985 35 0 120
32.2989 -43.4498 0.00981113 48 13 128
32.2243 -34.5347 0.00893656 20 59 108
32.1568 -30.2823 0.0229307 32 88 87
32.359 -47.7 0.0103484 50 15 128
32.3593 -52.8272 0.00644728 222 143 248
32.2952 -48.579 0.00874004 49 17 128
32.7008 -43.7842 0.00933687 49 11 130
32.6288 -39.5276 0.0105847 45 9 118
32.7659 -52.09 0.0072893 51 13 133
32.6962 -47.8309 0.00868541 52 15 131
32.6292 -43.5846 0.0102907 47 12 130
32.5625 -39.3275 0.00906391 45 10 120
32.6269 -47.7616 0.00935927 51 14 130
32.4965 -39.4611 0.00961119 45 11 124
32.5629 -43.5123 0.0112978 48 13 129
32.6269 -51.8156 0.00690258 56 17 134
32.4957 -42.9754 0.00992177 45 12 125
32.4257 -38.7247 0.00939098 41 12 118
32.8979 -38.5827 0.0105098 42 10 116
33.0361 -47.0936 0.0103276 49 14 132
33.1716 -52.6251 0.00745036 202 153 255
33.0334 -43.5098 0.010955 49 12 131
32.9675 -39.2604 0.0112538 42 14 121
33.24 -52.4228 0.00744272 65 21 134
33.0998 -43.6461 0.0100603 47 11 129
33.0372 -39.5979 0.0104946 40 13 120
33.1761 -47.905 0.00974636 50 15 133
33.2407 -48.1013 0.00818186 52 15 134
33.1724 -43.5791 0.0108367 46 11 129
33.1024 -39.3271 0.0105108 41 14 121
33.1734 -45.6723 0.0107221 51 12 130
33.099 -41.2876 0.0110277 46 12 125
33.3705 -52.3527 0.00794469 46 0 122
33.2422 -45.6739 0.00851173 51 10 128
33.1704 -41.1502 0.0116082 46 12 125
33.5053 -52.4878 0.00726353 80 34 151
33.4393 -47.9687 0.00870934 52 13 132
33.3743 -43.7177 0.00996193 48 11 127
33.3035 -41.2828 0.0101858 46 11 128
33.712 -48.0347 0.0103749 52 13 132
33.577 -39.7355 0.0103845 41 13 123
33.7768 -52.4874 0.00821617 69 21 139
33.6483 -43.7171 0.00998336 50 11 129
33.9102 -51.6159 0.00741738 69 25 149
33.8455 -47.6987 0.0088004 52 12 134
33.7778 -43.3136 0.0101668 48 13 129
33.7105 -38.9208 0.00994502 44 11 108
33.9113 -51.683 0.00811533 69 25 148
33.8475 -47.6334 0.00903614 53 13 135
33.777 -43.3762 0.0102591 48 12 128
33.7126 -38.857 0.0101991 43 14 107
33.9787 -51.3453 0.00791916 59 17 141
33.9089 -47.087 0.00923335 52 12 135
33.8482 -43.5851 0.0107441 47 13 126
33.7749 -39.3254 0.00961638 40 13 118
34.114 -52.2229 0.00739766 50 6 127
34.0485 -47.8348 0.00932319 54 14 137
33.9769 -43.7183 0.0107157 47 12 128
33.9132 -39.3271 0.00998869 42 11 117
34.2502 -50.3271 0.00938785 53 15 137
34.184 -46.0783 0.010582 51 13 132
34.3164 -50.4655 0.00878946 55 16 141
34.2492 -46.078 0.00979313 50 12 131
34.1797 -41.6908 0.0091297 42 13 125
34.3875 -47.765 0.00935211 54 13 141
34.3184 -43.5103 0.0101864 45 12 127
34.2456 -38.9881 0.010184 30 57 119
34.5848 -52.6949 0.00748341 225 162 255
34.5192 -48.3096 0.0104023 53 14 141
34.4521 -43.9226 0.0119382 46 11 127
34.3895 -39.4648 0.00983847 38 30 113
34.6554 -52.6932 0.00735985 199 139 244
34.5899 -48.4414 0.00891184 53 14 141
34.5124 -43.9208 0.00998939 47 12 128
34.4562 -39.669 0.00865725 42 21 114
34.6585 -53.3684 0.00775155 173 89 232
34.5847 -49.1114 0.00861011 52 13 138
34.5189 -44.8639 0.0104285 49 11 132
34.4524 -40.613 0.0107099 41 12 120
34.7218 -52.9614 0.00701767 227 138 255
34.6574 -48.3743 0.00879653 52 13 140
34.5924 -44.1258 0.009337 47 10 126
34.5163 -39.5986 0.0102596 25 18 98
34.7863 -43.9886 0.00922175 47 12 128
34.7226 -39.7325 0.00921053 36 51 110
34.8579 -48.102 0.00998167 52 13 138
34.7888 -43.8478 0.00949411 46 11 127
35.1273 -47.4999 0.00941287 51 11 136
35.0566 -42.9715 0.0104351 46 9 125
35.2016 -51.8129 0.00904275 63 18 147
35.0594 -43.0336 0.00973266 46 9 125
35.3292 -53.1649 0.0078202 216 119 255
35.2011 -44.0507 0.0102232 45 10 126
35.1292 -39.8042 0.010491 22 61 130
35.2002 -39.8684 0.00985588 21 61 130
35.3956 -53.2329 0.00757812 219 122 255
35.3279 -48.7122 0.00898773 52 13 138
35.4686 -52.8943 0.00762127 230 143 255
35.3985 -48.6426 0.00955871 52 13 139
35.3232 -44.1193 0.00964174 45 10 128
35.2637 -39.8677 0.00956983 21 61 130
35.4635 -52.9616 0.00785669 233 147 255
35.2653 -39.8036 0.00896992 21 61 130
35.5981 -48.7768 0.00993841 53 13 136
35.5339 -44.5305 0.0100022 48 10 131
35.465 -41.5501 0.00966478 41 14 121
35.6667 -52.8284 0.00856703 226 148 255
35.5285 -44.3273 0.0110833 47 11 129
35.4699 -41.7587 0.00982079 43 11 121
35.8052 -48.9147 0.00900689 52 12 135
35.9334 -53.37 0.00836476 174 94 229
35.7989 -44.5947 0.00974993 48 10 131
35.9328 -44.7338 0.00994744 48 10 130
35.9327 -44.596 0.00901187 46 11 129
35.9349 -43.9176 0.00985215 45 10 128
36.2687 -51.7442 0.00881362 54 11 144
36.2098 -47.4946 0.00950775 53 11 139
36.1415 -42.9719 0.0106568 44 9 125
36.3375 -51.209 0.00905349 51 15 139
36.2666 -46.6178 0.00973609 49 10 135
36.2096 -42.3646 0.0113709 38 12 122
36.3401 -51.1388 0.00840191 51 15 138
36.209 -42.2985 0.00910031 39 11 124
36.5488 -51.2746 0.00905811 51 15 141
36.4111 -42.4997 0.00900116 43 11 122
36.482 -44.0539 0.0109285 44 9 129
36.5474 -43.9196 0.0100099 42 11 128
36.6161 -44.8586 0.0112434 46 9 131
36.7434 -45.469 0.00975323 46 10 132
37.3549 -45.5381 0.00917117 45 10 130
37.4239 -49.5883 0.00990343 48 12 138
38.164 -53.5038 0.00886041 154 88 220
38.1007 -49.1131 0.00955269 48 11 140
38.0403 -44.999 0.0106476 44 11 128
38.9099 -50.3305 0.00875009 49 11 146
38.8436 -45.8125 0.00991902 43 8 126
39.8534 -51.2789 0.00943884 54 10 145
39.7843 -45.605 0.0111488 44 9 130
40.1861 -50.6697 0.00874204 50 10 142
40.1205 -46.2808 0.0112556 43 8 126
40.4553 -51.2758 0.00866818 51 11 143
40.3855 -46.8904 0.0117129 44 8 130
40.5964 -52.5561 0.00873142 68 23 150
40.5223 -48.3057 0.0100695 45 10 136
40.5194 -48.3703 0.00928475 45 10 136
41.4733 -49.2528 0.00933213 45 9 135
41.3987 -45.2031 0.0106634 129 110 191
41.4022 -45.1357 0.0105552 123 108 180
41.5433 -50.5343 0.00886041 49 9 141
41.471 -46.281 0.0104316 39 10 126
41.8115 -50.0601 0.0112336 46 9 139
41.8769 -45.9417 0.0105275 124 104 199
41.9394 -50.1933 0.011172 48 8 140
42.6841 -51.8148 0.0107139 48 14 152
42.6213 -47.2957 0.0128814 39 10 129
42.8234 -53.1664 0.00946582 82 28 165
42.7525 -48.9802 0.0104116 45 11 134
43.092 -51.949 0.00910057 51 12 154
26.5561 -51.0714 0.00431456 24 59 95
26.4901 -46.8205 0.00742985 40 14 109
26.4179 -42.5698 0.00838539 37 13 107
26.3604 -38.3176 0.0103295 33 15 101
26.2883 -33.4541 0.010136 26 14 88
26.2167 -29.202 0.00913596 24 13 79
26.1497 -24.9499 0.00674215 99 102 109
26.69 -51.6108 0.00504921 33 55 102
26.6262 -47.2272 0.00821746 37 15 108
26.5554 -42.4973 0.00892836 36 15 108
26.489 -38.1149 0.0110854 36 13 104
26.4185 -33.995 0.0102569 28 15 94
26.3568 -29.609 0.00948255 25 15 81
26.2837 -24.884 0.00702413 100 99 107
18.8558 -28.2621 0.00850866 235 236 220
18.7902 -24.0043 0.00760583 132 135 118
19.8756 -24.277 0.00894817 132 134 120
19.5989 -26.8409 0.00724754 142 144 126
19.5341 -22.6551 0.00661767 122 123 109
28.716 -50.1265 0.00771137 40 16 110
28.5808 -41.3548 0.00881768 38 13 114
28.5142 -37.097 0.00952694 33 14 105
28.4454 -33.5903 0.00944589 30 15 100
28.3769 -29.3391 0.00830589 60 50 103
28.3075 -24.8161 0.0117072 85 86 104
28.7165 -50.1948 0.00561481 38 17 110
28.6476 -45.8064 0.00906648 50 14 122
28.5118 -37.0345 0.0103318 33 14 105
28.4389 -33.6557 0.00893007 30 15 101
28.3772 -29.2729 0.00783143 58 50 100
28.5806 -41.4199 0.0103184 39 14 114
28.3062 -24.8917 0.0131169 85 86 104
28.8471 -46.1426 0.00754307 50 14 122
28.7145 -37.0369 0.00876392 35 16 108
28.647 -32.7804 0.00916059 31 13 97
28.582 -28.5279 0.0069549 77 70 109
28.5124 -24.2778 0.012625 86 83 102
28.8476 -46.0776 0.0084334 50 14 122
28.7791 -41.6907 0.00955124 40 14 115
28.6496 -32.8522 0.00842731 30 15 98
28.9149 -50.4649 0.00718697 38 17 110
28.716 -37.2354 0.0112964 34 15 107
28.5779 -28.4621 0.00745983 79 72 109
28.5146 -24.0729 0.0122881 84 81 101
28.9874 -51.5457 0.00605321 31 25 108
28.9148 -47.2938 0.00799902 43 17 116
28.8497 -42.7702 0.00977492 41 13 116
28.7832 -38.5188 0.0112818 36 14 110
28.7165 -33.9283 0.00932607 33 16 102
28.6518 -29.6764 0.00844257 43 32 90
28.5809 -25.1602 0.0150524 83 83 101
28.9166 -47.0896 0.00859638 44 16 116
28.7794 -38.5869 0.00915853 38 14 112
28.7145 -33.8626 0.0092038 32 16 102
28.648 -29.4749 0.007554 61 51 103
28.5784 -25.3632 0.0107532 82 85 104
28.8472 -42.9718 0.0106264 41 14 117
28.9857 -47.1567 0.00792897 44 16 116
28.9142 -42.7736 0.00913973 43 13 117
28.8497 -38.6535 0.0100262 39 15 113
28.7809 -34.2635 0.00929852 33 15 101
28.7139 -29.5413 0.00762845 59 49 101
28.6508 -25.1469 0.0130957 84 82 101
29.0524 -53.1653 0.00515595 185 94 221
28.9158 -42.7052 0.00965542 41 13 116
28.8527 -38.181 0.00863809 38 12 111
28.7824 -33.9254 0.00917534 33 17 102
28.7171 -29.8802 0.00743996 29 18 83
28.644 -25.6369 0.00874473 90 91 111
28.9842 -42.5047 0.00984798 44 12 116
28.9112 -38.2488 0.00978329 38 12 112
28.8501 -33.9943 0.00947327 34 16 102
28.7822 -29.7466 0.00910461 45 34 94
28.7149 -25.4255 0.0113742 84 84 102
29.1188 -53.1663 0.00600508 194 101 233
29.051 -48.7741 0.00718409 43 18 117
28.987 -42.7021 0.00900541 44 13 117
28.9136 -38.3203 0.0102514 37 13 109
28.849 -33.9302 0.00818928 34 16 102
28.7094 -25.6194 0.0109769 89 90 110
28.7831 -29.5379 0.00827602 58 48 101
28.9161 -38.3855 0.0101588 36 15 110
28.8522 -33.8619 0.00797932 33 15 101
28.7798 -29.6068 0.00850986 57 47 101
28.9911 -42.632 0.011547 44 12 116
28.7197 -25.5577 0.0142207 88 89 108
28.9871 -38.3848 0.00995566 36 14 113
28.9133 -33.9984 0.00943739 32 17 102
28.8512 -29.6085 0.00706156 57 46 102
28.7845 -25.2173 0.0133936 84 80 102
29.1227 -47.0913 0.00805477 43 17 116
29.0558 -42.7026 0.00909433 46 13 117
28.9871 -40.1425 0.00996679 43 13 113
28.8509 -31.6334 0.00799009 26 14 88
28.9139 -35.7485 0.0109525 30 14 103
28.7817 -27.2445 0.00749773 78 73 104
29.2533 -51.6832 0.0056191 35 33 116
29.1248 -42.9037 0.00937333 46 13 118
29.052 -38.5122 0.00943444 36 14 115
28.9887 -35.6826 0.0101003 30 14 103
28.9169 -31.2962 0.00806802 27 15 89
28.8532 -26.9079 0.00638227 76 76 102
29.1869 -47.358 0.00782861 42 16 115
29.0555 -38.5894 0.0095071 38 13 115
28.9835 -35.6153 0.00956275 30 14 103
28.9159 -31.3655 0.00831155 27 15 89
28.8507 -26.8407 0.0065089 80 79 106
29.2558 -51.5464 0.00681338 33 24 111
29.1874 -47.1605 0.00747156 43 17 116
29.124 -43.0424 0.010574 46 13 118
28.9889 -35.5491 0.0090495 30 14 103
28.9144 -31.1617 0.00855881 27 15 89
29.0521 -38.6508 0.00982584 38 13 115
28.8504 -27.0422 0.00671386 78 78 104
29.2565 -47.2232 0.00877243 42 16 115
29.1907 -42.8372 0.00995295 45 14 118
28.9883 -31.2299 0.00815738 27 13 88
28.9154 -26.8418 0.00689536 81 80 106
29.3235 -51.412 0.00646537 35 20 111
