ply
format ascii 1.0
comment Created by Open3D
element vertex 1325
property double x
property double y
property double z
property uchar red
property uchar green
property uchar blue
end_header
59.2297 -20.5814 1.52745 85 60 115
58.0109 -13.8151 0.00725484 72 49 103
52.9052 -19.223 0.989942 78 51 109
52.9627 -19.8452 1.26055 78 50 109
51.8042 -16.3815 0.0242626 60 79 74
52.9526 -19.8976 1.26123 78 50 109
52.4772 -28.3896 2.09429 80 45 135
52.1373 -16.8685 0.107342 76 60 80
52.2657 -24.6135 2.20769 81 55 115
58.5498 -20.7776 1.59918 85 61 113
54.2941 -23.1318 2.06806 73 49 117
52.5391 -21.5642 1.78531 74 49 110
51.8024 -23.3322 2.07089 75 59 86
52.0678 -30.7531 1.69745 74 56 91
59.1566 -25.5579 2.23993 89 64 122
53.4841 -28.9302 2.05037 86 49 144
52.3399 -18.5973 0.716474 83 63 91
52.14 -33.4969 0.652212 66 51 85
52.0595 -30.9466 1.65961 75 58 91
52.8126 -14.3568 0.0104739 71 47 97
53.1439 -35.8211 0.0138426 93 38 182
54.8403 -23.5347 2.11567 82 55 122
52.4837 -17.973 0.440448 88 62 104
52.7449 -34.8744 0.161896 94 38 171
51.6668 -18.9443 0.795482 89 77 91
51.7279 -27.9198 2.10927 76 56 87
52.9445 -16.0469 0.00947623 81 54 105
51.7658 -29.845 1.87251 74 59 87
54.7775 -19.2542 0.979963 81 51 111
52.8113 -25.4288 2.24098 76 49 121
52.6133 -34.9371 0.146903 90 38 169
57.8745 -10.6401 0.00735312 71 47 99
57.943 -14.8249 0.00810319 73 48 106
54.7723 -32.2355 1.19832 97 50 170
54.5903 -19.7173 1.18587 81 53 112
52.6765 -32.6994 0.996748 88 43 164
52.4773 -19.3506 1.02489 80 52 104
52.5439 -33.0336 0.851833 90 41 166
51.6604 -32.1704 1.20676 74 53 86
52.8118 -17.8639 0.399687 81 57 107
53.0204 -30.7548 1.69762 87 46 154
52.136 -27.1895 2.19526 73 55 97
58.479 -24.8831 2.21791 86 64 122
52.0694 -22.4476 1.97496 79 63 92
52.0719 -35.2111 0.086494 60 45 86
52.7374 -35.5327 0.0415167 97 37 177
51.7361 -35.6859 0.0448978 59 92 124
58.2816 -19.9029 1.26153 85 58 111
51.737 -19.0032 0.832014 75 62 82
59.2937 -26.0308 2.24391 94 69 127
59.1556 -24.5537 2.19969 91 65 122
58.4834 -24.2082 2.17661 90 67 123
56.0489 -24.0729 2.16628 84 58 123
52.3303 -31.2727 1.59144 89 45 156
52.5414 -25.8939 2.24727 65 40 118
58.8201 -21.4408 1.75431 86 63 115
59.2214 -21.5943 1.7962 87 63 114
59.2263 -18.8745 0.812604 81 58 110
56.122 -26.9096 2.21454 89 61 139
58.6845 -19.753 1.19896 83 58 112
53.7547 -13.5408 0.0100663 77 49 107
55.2405 -24.2041 2.17782 82 56 121
52.2058 -14.4847 0.0085311 72 49 95
58.4149 -20.2329 1.39904 88 59 115
51.669 -14.6278 0.00824357 65 97 88
57.9406 -11.2508 0.00702569 70 47 99
58.0088 -15.4993 0.00780925 74 49 107
55.2439 -24.1428 2.1724 83 57 122
55.0369 -36.2231 0.00657456 102 44 182
52.4674 -33.8348 0.518089 95 42 168
52.1368 -18.0641 0.477761 81 65 85
51.8331 -26.9849 2.2035 76 60 89
51.8524 -35.6592 0.041862 68 83 116
53.0127 -26.0947 2.24666 79 49 125
52.409 -22.6567 2.00709 74 50 115
52.2732 -30.604 1.73413 84 47 146
55.5765 -22.6021 1.99878 80 56 118
58.686 -12.5286 0.00687522 75 46 101
52.6101 -27.1579 2.20218 81 47 132
52.2745 -23.8722 2.15108 80 53 115
52.1351 -30.3531 1.78001 73 51 100
52.0057 -21.5664 1.78541 77 61 88
52.1262 -17.1389 0.176772 81 63 85
58.0107 -20.6319 1.54618 84 56 114
55.984 -12.934 0.00781335 74 50 102
56.9969 -14.0807 0.00778535 81 53 111
52.3399 -30.6873 1.71053 87 46 150
58.079 -30.2683 1.79549 94 59 152
53.8289 -35.6184 0.0275943 104 42 186
53.4838 -13.743 0.00869863 76 50 108
58.6861 -9.62758 0.0069557 68 44 94
58.7539 -13.5457 0.00702128 73 47 103
58.8239 -13.613 0.00701486 72 47 105
52.3402 -30.754 1.69774 89 45 152
51.529 -18.6744 0.662615 53 72 64
58.0102 -20.7425 1.58643 82 57 114
52.544 -23.7408 2.13877 75 48 115
51.868 -22.6477 1.99026 82 64 91
51.5575 -18.6091 0.645581 57 77 68
53.8234 -34.7358 0.198199 96 40 177
52.9475 -13.8807 0.00906454 68 46 95
52.6756 -35.9536 0.00942641 94 35 177
52.0719 -14.6859 0.00877603 87 80 97
55.8499 -28.395 2.0942 92 57 145
50.6487 -23.5376 1.96129 55 74 71
52.4134 -35.4807 0.0429302 96 37 176
52.2122 -26.2295 2.24453 87 62 112
51.8711 -22.4588 1.96252 77 63 88
58.6864 -19.3967 1.04283 82 57 113
52.7495 -14.2228 0.00873905 69 46 95
51.194 -15.1643 0.00824599 61 95 81
55.1703 -14.6208 0.0083888 83 56 116
55.9177 -13.0689 0.00911981 74 50 102
57.8749 -12.0591 0.00761206 72 46 99
59.9684 -11.0441 0.00614623 70 65 91
60.0339 -15.2992 0.00647623 82 94 114
53.0855 -23.8725 2.15238 74 50 118
51.8732 -21.3033 1.71128 78 62 88
58.0141 -25.2212 2.23169 85 63 120
50.9885 -14.8261 0.00823011 62 96 86
53.3487 -13.1364 0.00887516 72 50 99
53.9637 -13.2783 0.00824045 73 48 102
51.5923 -27.4735 2.12961 73 58 87
51.7293 -21.3743 1.70844 79 64 88
55.9186 -23.4657 2.10685 80 58 123
51.9388 -16.3804 0.0276049 65 68 72
54.9032 -16.3764 0.0278652 85 56 109
55.5878 -13.8799 0.00896701 81 52 110
59.36 -36.4925 0.00522875 85 49 158
58.9542 -9.76142 0.0056172 70 46 96
59.0248 -14.0828 0.00724846 73 49 105
59.0224 -25.626 2.24083 88 65 123
55.5748 -13.7407 0.0090159 82 52 109
52.612 -33.5167 0.64801 95 40 170
52.6056 -33.3525 0.710127 93 40 170
52.4767 -35.2796 0.0745683 92 38 171
51.6664 -29.7917 1.86657 74 60 86
55.1743 -23.9382 2.15505 84 58 123
51.3895 -15.9055 0.00837707 62 96 82
52.1378 -25.6201 2.24451 76 61 91
51.7357 -27.7796 2.11904 73 59 85
55.9851 -18.8745 0.813036 84 56 114
51.2666 -14.6225 0.00811776 59 93 82
58.2163 -13.9504 0.0076632 72 47 104
52.6741 -29.9385 1.8643 85 44 148
51.7426 -33.6302 0.594527 62 50 84
58.3452 -26.5717 2.23235 93 68 136
55.3752 -23.9376 2.15473 83 57 123
58.1466 -17.0498 0.149106 84 54 106
53.3504 -16.246 0.0166863 82 53 107
52.3397 -29.5422 1.94588 83 45 148
58.7525 -26.3693 2.23796 95 70 135
55.2423 -28.3264 2.10029 88 54 141
55.5712 -27.9507 2.12935 88 55 138
55.5106 -23.5354 2.11484 80 54 120
53.3565 -16.3773 0.0286403 83 53 106
56.1203 -36.1562 0.00752232 102 46 186
55.7816 -14.6913 0.00890885 74 49 107
52.5391 -29.6068 1.93263 86 48 151
52.3422 -29.6343 1.92517 83 45 148
58.2816 -21.2371 1.70759 83 60 116
55.5754 -16.8758 0.106501 84 55 109
56.0522 -22.3844 1.9609 79 55 118
52.4083 -29.6779 1.91786 84 46 149
55.445 -16.7824 0.087209 86 57 111
55.1058 -28.122 2.11665 89 55 141
55.434 -31.7852 1.38365 98 50 169
55.6496 -14.7602 0.00819584 74 49 107
52.0011 -15.5666 0.00797245 66 66 79
52.1333 -28.3933 2.09467 71 55 91
51.728 -33.3857 0.679979 67 53 83
58.2819 -21.2918 1.7199 83 60 116
55.0333 -16.8689 0.106445 86 55 112
50.5776 -15.9704 0.00852536 61 95 84
55.3097 -14.2162 0.00870591 80 50 110
56.0558 -35.6186 0.0270274 109 47 194
55.716 -15.5713 0.00824834 75 47 106
52.4849 -24.4125 2.19848 72 49 117
52.0684 -24.1417 2.17439 80 62 89
58.6842 -25.2206 2.23104 90 64 124
57.9414 -18.1971 0.529081 85 57 111
59.9678 -8.68188 0.00506753 79 77 101
60.0343 -13.07 0.0057926 77 92 106
60.4401 -35.4808 0.00467818 151 106 233
52.1686 -29.2949 1.99469 93 62 135
58.8861 -24.7481 2.2103 91 66 124
55.6493 -18.5361 0.667578 83 54 113
59.3594 -12.6014 0.00743806 78 49 106
52.0661 -30.8223 1.68506 74 57 94
55.648 -26.4363 2.2382 85 57 133
59.024 -22.1152 1.90671 89 66 121
52.8122 -15.4332 0.00756355 69 48 102
54.839 -35.819 0.0127035 102 42 188
54.4999 -13.9499 0.00825161 75 47 105
55.0455 -12.3302 0.00788465 75 47 100
52.6115 -32.782 0.958371 91 42 167
51.8715 -15.5709 0.00796513 53 83 77
51.9352 -24.2724 2.17908 77 63 88
55.1086 -25.4912 2.24091 83 57 127
54.9057 -14.1554 0.00817363 82 52 111
52.0012 -28.3926 2.09532 73 57 85
51.5258 -22.6492 1.95047 79 64 88
58.818 -26.9763 2.20988 92 65 136
58.696 -19.1073 0.915651 82 57 109
55.5112 -30.9644 1.65314 94 52 162
52.945 -34.0644 0.421745 93 40 170
58.6834 -26.6371 2.22887 94 70 138
55.783 -25.8942 2.24539 78 52 125
55.2419 -12.9999 0.00793588 77 50 106
56.1198 -13.0052 0.00835553 72 48 105
58.217 -15.2957 0.00766327 74 49 107
52.4062 -29.2699 2.00254 82 47 147
51.9437 -24.4154 2.19949 79 63 89
51.6696 -35.8241 0.0340496 53 92 131
54.166 -15.9068 0.007491 83 54 110
55.7148 -15.7072 0.00878212 78 48 107
55.9156 -11.657 0.00739653 73 49 100
55.9841 -15.9027 0.00784836 83 54 110
56.6568 -13.4745 0.00815494 82 53 111
57.8757 -11.1824 0.00633279 69 45 97
57.9435 -15.3709 0.00773666 74 49 107
59.1588 -12.7358 0.00699081 74 46 104
59.4268 -13.003 0.00713083 75 45 105
59.4278 -8.88519 0.00549526 70 46 96
59.4942 -13.1412 0.00747661 74 49 101
52.3387 -30.0832 1.83488 86 45 151
52.2062 -16.7869 0.0892299 74 57 82
59.3597 -30.353 1.77718 94 64 154
55.6487 -19.402 1.04579 86 56 116
55.3776 -13.1394 0.00883237 83 52 110
57.8741 -10.9136 0.00692138 70 46 98
57.9418 -15.6365 0.00810706 76 51 106
58.2148 -15.771 0.00777711 73 50 103
58.6197 -11.9205 0.00716497 74 46 98
58.6877 -16.176 0.0136091 79 55 105
55.3794 -22.1118 1.9072 81 55 116
58.0842 -19.108 0.916112 80 55 112
50.7877 -16.3778 0.00878814 62 93 88
54.2302 -16.3125 0.0225929 87 54 109
56.2555 -12.6688 0.0079704 79 48 102
56.926 -14.3516 0.00797593 78 49 108
58.686 -35.885 0.00906801 110 52 191
58.2782 -10.3006 0.00623852 70 46 96
58.3489 -14.5531 0.00811813 73 48 103
52.2094 -20.1935 1.38423 79 60 94
59.293 -25.7607 2.24238 89 64 122
58.4839 -24.8144 2.21453 91 66 125
58.0764 -19.0105 0.872538 81 54 110
51.1235 -15.7004 0.00799649 61 97 85
51.1837 -16.3083 0.00975338 56 88 79
51.4629 -14.7591 0.00799925 58 94 80
51.5305 -14.5555 0.0082625 63 95 82
58.8207 -24.4101 2.19127 91 66 123
58.4837 -20.6963 1.56948 84 60 112
55.8554 -12.5985 0.00775801 73 49 101
55.92 -12.871 0.00870668 76 52 104
56.861 -14.153 0.00809304 80 51 109
52.0712 -22.048 1.89551 78 64 90
51.658 -28.7334 2.03244 77 60 87
51.5353 -24.2321 2.13166 77 62 88
58.3544 -20.3882 1.45777 87 58 116
52.7361 -33.859 0.514625 96 39 171
58.1447 -19.5443 1.10733 80 55 113
52.0646 -15.9033 0.00825854 83 70 92
54.0996 -36.1539 0.00688392 98 38 186
53.6869 -13.8053 0.00933296 80 51 110
54.3596 -14.4831 0.00871387 77 51 109
56.0491 -12.1981 0.00743227 72 49 101
57.3326 -13.0033 0.00746258 74 49 106
50.9209 -16.5099 0.0130816 61 93 83
51.3288 -15.7699 0.00800833 62 95 81
54.0964 -15.1623 0.00887677 72 47 104
54.6296 -15.6344 0.00880852 79 49 109
56.1861 -11.515 0.00762403 75 45 97
56.2515 -15.9032 0.00904027 81 53 106
59.4295 -36.7627 0.00517239 80 48 152
59.0223 -9.29112 0.00647575 69 45 95
59.0894 -13.6822 0.00802722 73 48 106
59.4932 -11.9184 0.00652515 76 47 101
52.7416 -34.0191 0.43676 94 38 171
52.0678 -27.2497 2.19131 73 59 86
51.6656 -29.1207 2.00392 75 59 87
55.1783 -25.9599 2.24598 80 52 124
58.4862 -36.0211 0.00550706 104 50 187
59.9668 -11.1805 0.00616732 80 77 102
60.0352 -15.4349 0.00598526 84 97 117
53.6203 -14.4187 0.00865758 80 51 110
56.6592 -10.9135 0.00681901 70 46 96
56.729 -15.2945 0.00800024 77 49 109
57.8735 -12.127 0.00685652 74 47 100
59.2933 -36.4259 0.00536057 85 48 156
58.8875 -9.96273 0.0064663 69 45 95
58.9526 -14.2186 0.00728698 74 49 106
55.1088 -18.4599 0.635157 82 55 113
55.378 -14.6229 0.00742861 77 51 112
59.5615 -10.4373 0.00627041 72 46 98
59.6304 -14.6914 0.00723799 75 51 104
52 -24.5403 2.20198 81 64 88
55.716 -26.8411 2.2186 88 57 135
59.0211 -22.0464 1.89258 88 64 115
58.4785 -35.5062 0.0363893 109 52 186
51.6694 -15.8389 0.00818367 58 92 83
53.0176 -16.1067 0.0115495 81 54 105
52.3422 -18.6701 0.726631 83 63 90
52.2007 -33.0299 0.854345 69 47 95
58.6851 -19.6208 1.1426 84 56 110
58.483 -21.1704 1.69255 84 59 115
57.1302 -16.7818 0.0877437 85 56 110
52.0063 -15.03 0.00803361 65 72 83
52.3365 -16.3133 0.0230766 80 54 98
53.623 -15.0281 0.00796822 81 54 111
55.5796 -14.6935 0.00805892 76 50 107
56.592 -11.9224 0.0079824 76 47 101
56.6627 -16.3063 0.0228137 85 56 110
58.2109 -13.2739 0.00753349 77 48 106
51.9351 -32.1745 1.22294 72 54 85
51.8065 -32.4009 1.11306 68 53 82
51.7999 -15.6397 0.0077085 62 97 86
51.87 -15.7744 0.00825971 59 82 81
53.9584 -13.4046 0.00870117 72 47 102
55.9835 -13.816 0.00916399 85 55 115
56.2498 -15.1597 0.00796448 78 49 109
57.4044 -12.1936 0.00710979 76 49 102
57.4667 -16.4432 0.0343837 89 58 115
59.8996 -36.4247 0.00495543 114 142 205
59.4935 -10.7761 0.00640658 70 46 96
59.5638 -15.4973 0.00731 84 60 116
52.4953 -28.8807 2.06676 81 44 140
57.9414 -20.4943 1.49655 83 58 115
55.3092 -24.0048 2.16111 83 57 122
57.5365 -24.3442 2.18814 86 62 120
55.7147 -35.685 0.0205638 107 45 192
55.3788 -13.8193 0.00790474 83 53 113
56.2537 -14.9621 0.00729061 77 49 107
52.4119 -19.8205 1.22895 78 51 101
55.312 -22.251 1.93541 80 54 115
57.473 -17.862 0.398758 83 57 110
52.1309 -15.0929 0.00751636 70 54 92
53.689 -15.3664 0.00744778 72 47 105
55.1109 -13.4068 0.00899018 75 47 106
52.4184 -30.6094 1.72778 88 45 154
58.5506 -21.9813 1.87867 85 60 117
55.4451 -22.2482 1.93444 80 54 117
51.8729 -14.8272 0.00803121 65 94 88
54.4292 -13.7401 0.00948667 74 49 106
57.4682 -12.5293 0.00678777 74 50 102
51.9331 -34.3978 0.326225 80 65 96
57.4691 -17.8102 0.379752 81 57 109
52.135 -15.434 0.00792383 71 49 94
53.6226 -15.775 0.00746662 78 54 105
53.5539 -16.1729 0.0131921 83 54 105
56.0576 -36.0864 0.00623008 103 44 189
55.714 -15.0924 0.00805217 76 49 108
56.8617 -11.9895 0.00729211 73 46 99
56.9331 -16.3819 0.0294556 88 59 113
57.4004 -12.8673 0.00784033 72 48 103
51.5281 -18.8798 0.74984 54 73 62
59.0896 -19.4801 1.07977 85 56 112
56.1866 -14.0163 0.00815078 81 50 109
58.2161 -12.1248 0.00678971 70 46 98
58.2816 -16.3794 0.0286446 85 55 107
52.9435 -35.8859 0.0113562 95 36 181
52.6083 -15.6369 0.00725268 74 48 102
57.9408 -17.6126 0.312708 83 56 109
50.2442 -18.1798 0.306306 61 88 84
51.1248 -35.7472 0.130077 49 87 117
51.1954 -35.7482 0.116471 55 91 124
51.2588 -35.7369 0.108421 53 89 126
51.393 -35.7524 0.0803195 53 89 127
51.4601 -35.7525 0.0709413 55 89 128
51.5348 -35.7531 0.0604655 55 89 126
51.5932 -35.8142 0.0438826 54 90 126
51.7294 -35.827 0.0388859 59 98 136
54.5012 -13.0009 0.00932291 76 50 103
54.8444 -13.613 0.00867333 80 50 108
58.213 -12.1891 0.00756701 70 46 98
52.4463 -19.7188 1.18711 77 52 105
51.7276 -17.6566 0.298741 58 70 67
59.0898 -19.2861 0.994151 84 60 113
50.309 -18.1276 0.298095 53 81 74
50.7715 -35.6725 0.244275 45 74 115
50.8557 -35.683 0.210554 43 76 118
50.9195 -35.6827 0.19425 44 78 116
51.0327 -35.6686 0.18424 51 89 121
51.1252 -35.6813 0.147628 55 93 125
51.1937 -35.6822 0.131741 52 87 123
51.26 -35.6797 0.118728 54 89 127
51.3194 -35.6742 0.110458 47 85 124
51.3669 -35.6613 0.11071 48 84 122
51.3986 -35.6834 0.0935056 52 86 125
51.4634 -35.6844 0.0821753 52 86 124
51.527 -35.6831 0.0726005 54 88 126
51.5966 -35.6824 0.0641284 53 88 124
51.667 -35.6855 0.0537946 57 93 127
51.7244 -35.7316 0.0419298 55 92 127
51.7926 -35.7417 0.0397097 58 92 123
56.5996 -36.0877 0.0059607 103 48 189
56.2528 -13.7446 0.00824911 80 49 109
58.146 -35.9541 0.00762496 111 49 194
57.738 -10.1007 0.00715922 71 44 97
57.8084 -14.484 0.00803559 69 48 104
59.024 -11.4491 0.00645925 72 45 96
59.0854 -15.8385 0.00740801 79 51 103
59.4282 -12.6018 0.00698425 77 49 104
52.6786 -33.2059 0.773408 94 42 169
58.0784 -16.9192 0.115737 84 54 106
50.5879 -35.6676 0.309292 67 91 135
50.6532 -35.6801 0.268648 56 87 126
50.7231 -35.617 0.26927 51 79 122
50.786 -35.6135 0.251503 47 75 117
50.8472 -35.5989 0.24304 51 78 124
50.925 -35.6169 0.212332 39 78 114
50.9904 -35.6139 0.196291 43 82 116
51.0539 -35.6088 0.182024 51 91 126
51.1143 -35.5924 0.177443 50 87 125
51.1964 -35.6157 0.148021 53 87 125
51.2635 -35.6131 0.134325 47 81 120
51.3261 -35.6127 0.122069 42 80 119
51.4481 -35.5924 0.110841 51 84 123
51.53 -35.6155 0.0846547 51 84 120
51.5981 -35.6138 0.0747476 49 83 117
51.6664 -35.6185 0.0646547 52 84 120
51.7984 -35.6207 0.0470256 64 83 112
51.9165 -35.6832 0.0381133 41 38 76
53.1503 -15.774 0.00776879 76 52 102
53.7586 -16.3787 0.0288229 89 56 112
54.7009 -13.9453 0.00827868 78 50 108
57.203 -11.3842 0.00707376 70 46 98
57.2695 -15.6379 0.00850762 76 47 106
59.2906 -13.0719 0.00766288 75 46 105
52.4093 -35.7532 0.0165305 93 34 174
52.0691 -14.4195 0.00794727 63 62 79
55.5817 -23.1317 2.06715 83 55 118
50.3851 -35.6182 0.367262 117 124 176
50.4564 -35.6161 0.351299 234 235 250
50.517 -35.6142 0.333248 176 183 212
50.5824 -35.6078 0.316588 78 96 146
50.6575 -35.6142 0.290438 52 75 124
50.79 -35.5508 0.271991 53 76 121
50.6545 -17.9359 0.273034 55 81 77
50.9043 -35.5313 0.245875 45 83 121
50.9915 -35.5461 0.216131 42 80 117
51.0603 -35.5457 0.19894 53 92 130
51.1187 -35.5451 0.184342 50 86 127
51.1763 -35.5248 0.180838 54 85 124
51.2629 -35.5455 0.151191 53 88 128
51.3947 -35.4822 0.138875 52 86 124
51.4617 -35.4832 0.124766 54 85 123
51.5189 -35.5207 0.112425 48 79 117
51.5943 -35.5473 0.0875305 50 85 118
51.6611 -35.5469 0.0766323 52 87 121
51.7353 -35.5484 0.0669585 49 82 110
51.8682 -35.5493 0.0497573 64 72 101
51.9296 -35.5425 0.0427071 49 43 75
51.9926 -35.6029 0.0399122 62 42 87
52.0689 -14.2155 0.00792287 55 58 74
52.9413 -15.2946 0.00749091 70 46 103
53.0857 -16.0377 0.00912749 82 54 105
54.7732 -13.8781 0.00959142 81 51 109
56.8662 -36.0219 0.00675948 109 49 196
56.5259 -13.9494 0.00808067 77 49 108
58.4198 -36.5608 0.00562047 80 44 152
57.54 -11.7216 0.00754065 70 47 99
57.6085 -16.1068 0.0119424 84 54 108
59.6291 -12.7362 0.00721366 72 51 103
57.9425 -17.3745 0.234637 82 56 111
55.7184 -23.1337 2.0678 80 55 120
58.2133 -28.7897 2.06391 90 59 141
50.4481 -35.5385 0.37756 248 246 253
50.517 -35.5498 0.355799 231 233 250
50.585 -35.5497 0.335063 83 91 143
50.6473 -35.5413 0.319326 56 71 126
50.7061 -35.5213 0.317014 53 74 120
50.7856 -35.4868 0.295548 46 70 116
50.857 -35.4811 0.27587 43 76 120
51.0603 -35.4814 0.217574 43 82 123
51.1291 -35.4797 0.200845 51 84 124
51.1906 -35.4748 0.186542 46 76 115
51.2454 -35.4509 0.182534 49 82 121
51.3156 -35.4011 0.178616 52 85 123
51.3969 -35.4144 0.155699 54 85 123
51.4603 -35.418 0.141759 54 82 122
51.5315 -35.4147 0.126805 50 82 118
51.5994 -35.4119 0.114955 48 85 115
51.6479 -35.4064 0.10966 50 82 113
51.7312 -35.4784 0.0793287 53 80 108
51.8001 -35.4797 0.0686651 59 76 99
52.0624 -35.5332 0.0414507 62 44 94
52.1225 -35.5419 0.0395257 73 35 121
52.1497 -35.5905 0.0391597 96 46 154
56.1184 -13.9478 0.00844985 83 52 113
58.2163 -16.3132 0.0230731 85 55 107
58.2807 -11.1152 0.00672672 68 45 97
58.346 -15.3661 0.0083151 74 49 104
59.2913 -8.95146 0.00587259 69 45 95
59.361 -13.3401 0.0063849 76 49 104
59.561 -12.7349 0.00650283 74 49 103
57.8082 -17.1861 0.184513 82 56 109
57.0619 -12.1257 0.00703832 71 47 99
57.128 -15.6338 0.00833748 81 51 111
50.3857 -35.2806 0.380556 77 58 128
50.3875 -35.3396 0.377719 97 69 168
50.4559 -35.3422 0.37706 158 131 194
50.4528 -35.4069 0.379129 198 190 226
50.5152 -35.4093 0.377834 249 245 253
50.5848 -35.4833 0.357965 100 101 151
50.6533 -35.4805 0.338256 54 68 127
50.7162 -35.4778 0.320211 57 71 119
50.7775 -35.4552 0.313565 53 75 122
50.8545 -35.4209 0.297693 41 78 119
50.9244 -35.4156 0.277983 42 77 117
50.7283 -17.8203 0.242317 58 85 79
50.9926 -35.4109 0.259195 39 76 118
51.1959 -35.4111 0.204764 48 79 118
51.3296 -35.3434 0.189932 54 86 122
51.3901 -35.3399 0.177615 52 83 120
51.4608 -35.3479 0.158855 57 85 124
51.5243 -35.3467 0.145439 45 77 110
51.5962 -35.3464 0.130062 49 83 113
51.6628 -35.3472 0.117175 56 84 115
51.7251 -35.3392 0.110239 59 82 108
51.8656 -35.3451 0.0823347 44 42 68
51.9335 -35.408 0.063375 65 52 88
52.0039 -35.4146 0.0545937 65 47 92
52.0705 -35.4178 0.0524695 66 47 92
52.073 -35.4779 0.0434977 66 47 98
52.1405 -35.4801 0.0440373 76 40 123
52.2059 -35.481 0.0428183 94 47 158
52.2076 -35.5293 0.0407454 97 44 161
52.2719 -35.5453 0.0402782 94 37 170
52.3181 -35.5916 0.0390894 93 35 174
52.8139 -14.891 0.0077153 72 48 100
54.0962 -15.5034 0.00720018 73 48 106
54.1631 -15.6354 0.0074926 76 47 105
55.106 -13.2729 0.00796847 74 48 106
55.4486 -12.5346 0.0092318 77 52 105
56.7217 -13.541 0.00866557 79 54 109
58.2136 -16.2465 0.0167973 85 55 107
59.4284 -9.01914 0.00572037 70 46 96
59.4972 -13.2758 0.00759149 74 50 102
51.8632 -30.6159 1.73182 72 57 86
55.1756 -28.1211 2.11608 91 57 142
57.9418 -30.3502 1.77798 97 60 156
50.3259 -35.1411 0.377204 47 43 65
50.3873 -35.1448 0.378551 43 39 70
50.388 -35.2089 0.378367 43 38 78
50.4507 -35.2097 0.380728 88 70 155
50.4552 -35.2758 0.377819 107 72 165
50.5171 -35.2813 0.378899 181 165 209
50.522 -35.3437 0.378928 246 238 253
50.582 -35.3474 0.379782 245 246 253
50.5819 -35.4117 0.377602 225 223 241
50.6285 -35.3955 0.379428 125 129 174
50.718 -35.4123 0.342308 57 69 120
50.7837 -35.4082 0.323901 45 69 115
50.9043 -35.3359 0.315084 43 76 118
51.0544 -35.347 0.262392 38 72 117
50.8534 -17.7498 0.243215 57 84 77
51.1149 -35.3366 0.248867 45 82 120
51.1708 -35.3186 0.243822 54 87 124
51.263 -35.3454 0.20723 52 85 123
51.3262 -35.2773 0.210274 52 86 119
51.3936 -35.2811 0.192075 52 86 120
51.4542 -35.2721 0.180601 53 83 119
51.5048 -35.2745 0.175943 53 83 116
51.5952 -35.2794 0.147745 55 85 115
51.6633 -35.2797 0.132549 60 84 116
51.7324 -35.2812 0.118733 64 87 112
51.7913 -35.2731 0.110873 68 85 109
51.8437 -35.2753 0.10781 65 64 92
51.8688 -35.2796 0.0951692 42 35 63
51.9346 -35.2804 0.0836796 63 50 84
52.0001 -35.2796 0.0751648 65 49 89
52.0671 -35.3423 0.064641 61 42 86
52.1392 -35.4092 0.0544551 60 32 97
52.2041 -35.4145 0.0536061 92 48 152
52.2732 -35.4796 0.0440009 96 38 168
52.3414 -35.4839 0.0430166 96 35 171
52.4142 -35.5365 0.0411297 96 36 174
52.4784 -35.5458 0.0391262 95 37 175
52.4875 -35.5928 0.0390242 98 37 176
53.2198 -14.017 0.00912663 68 45 98
54.5014 -16.2411 0.0160727 88 55 110
54.5648 -16.3758 0.0281712 91 58 113
56.3178 -12.7322 0.00737763 78 50 103
57.1305 -35.8863 0.00943236 114 50 198
56.7915 -13.677 0.00806826 83 56 111
50.3274 -34.9437 0.381418 38 38 50
50.3899 -35.008 0.382693 35 35 58
50.4534 -35.0803 0.381825 51 47 78
50.4604 -35.1455 0.382145 69 56 111
50.5163 -35.1401 0.384502 101 78 129
50.5212 -35.2064 0.380339 117 93 163
50.5839 -35.2085 0.382211 218 208 231
50.5902 -35.2779 0.381994 246 245 255
50.6544 -35.2817 0.382541 215 217 240
50.6512 -35.3406 0.379989 198 197 224
50.7029 -35.3274 0.380988 67 78 127
50.7889 -35.3446 0.344287 47 77 118
50.7185 -18.1889 0.365053 54 81 76
50.978 -35.2685 0.314471 36 69 115
51.0561 -35.279 0.285493 42 79 121
51.1264 -35.2772 0.26472 52 86 123
51.1892 -35.2714 0.24849 52 85 120
51.3264 -35.2145 0.228895 50 86 117
51.3944 -35.2117 0.21226 54 88 121
51.465 -35.2106 0.194747 52 82 115
51.525 -35.207 0.181669 58 88 119
51.5825 -35.1926 0.175906 64 91 120
51.6635 -35.2099 0.149796 63 89 116
51.731 -35.2137 0.134547 58 85 108
51.8001 -35.2098 0.122015 68 85 109
51.8606 -35.2082 0.113144 55 53 80
51.919 -35.1986 0.107497 70 58 91
52.0027 -35.2126 0.0878056 60 45 82
52.07 -35.278 0.074415 61 44 85
52.1336 -35.2777 0.0748821 63 41 93
52.205 -35.2821 0.0737825 80 45 128
52.2024 -35.3427 0.0640107 81 42 133
52.2715 -35.347 0.0638918 94 42 164
52.2713 -35.4137 0.0530063 95 40 166
52.3396 -35.4146 0.0537982 94 36 172
52.4034 -35.4156 0.0527659 95 38 175
52.4728 -35.4795 0.0438034 97 39 177
52.5631 -35.533 0.0403561 98 37 176
52.6221 -35.5512 0.0408266 99 37 177
52.6579 -35.594 0.0389487 100 37 177
52.4773 -15.4308 0.00750245 71 48 100
52.8133 -35.7465 0.0169882 96 36 177
54.0952 -16.3124 0.0222957 84 54 108
54.5698 -16.4433 0.0344731 89 56 111
55.247 -13.2103 0.00831682 80 50 111
55.5133 -12.5996 0.0085363 74 50 102
55.5784 -12.6634 0.0077447 75 50 103
57.8111 -11.3159 0.00748742 70 46 98
57.8725 -15.5674 0.00850041 74 49 107
58.2158 -36.7633 0.00563712 81 43 154
57.7411 -11.3159 0.00716488 70 46 98
57.8104 -15.4309 0.0070452 74 49 107
60.0357 -10.1703 0.00522234 78 84 100
60.1031 -14.2218 0.00648879 85 96 114
50.4536 -34.9386 0.384509 71 82 99
50.4605 -35.0026 0.383034 119 123 148
50.5262 -35.0134 0.385981 85 97 128
50.5253 -35.0754 0.384682 123 118 153
50.5863 -35.0788 0.38589 69 82 118
50.5873 -35.1385 0.383179 185 182 219
50.6546 -35.1428 0.385198 60 76 110
50.717 -35.2104 0.386394 52 74 107
50.7719 -35.2606 0.382816 48 75 117
50.8556 -35.2764 0.347456 46 80 122
50.6521 -18.1355 0.339914 57 82 78
50.9209 -35.2097 0.350996 40 73 118
50.8561 -18.1372 0.362861 62 87 81
51.0997 -35.2142 0.31173 50 86 121
51.1908 -35.2107 0.268267 53 88 122
51.3207 -35.1398 0.253795 56 90 120
51.3783 -35.1307 0.244684 55 88 121
51.2603 -17.5248 0.212077 56 76 75
51.5268 -35.1443 0.198579 61 88 121
51.7068 -35.1372 0.173303 60 89 110
51.7318 -35.1411 0.152801 62 89 110
51.8037 -35.1399 0.137431 77 91 114
51.8684 -35.1426 0.123878 47 45 74
51.9329 -35.1393 0.113524 64 52 87
51.9958 -35.1287 0.110445 58 45 82
52.1404 -35.213 0.0867413 64 44 91
52.2041 -35.2111 0.0873278 72 40 114
52.2724 -35.273 0.0756277 94 47 159
52.4072 -35.3456 0.0640289 93 39 172
52.4789 -35.4127 0.053591 96 38 175
52.5417 -35.4116 0.0541917 96 36 174
52.6094 -35.476 0.0445001 97 36 176
52.7951 -35.54 0.0396725 95 38 177
52.8292 -35.5951 0.0388812 96 38 177
53.9628 -15.7696 0.00777684 81 52 107
55.5829 -12.8041 0.00835376 76 49 104
56.5953 -13.4776 0.00847351 86 57 115
58.5524 -36.6956 0.00576106 80 45 153
58.2149 -14.8275 0.00725025 75 50 108
58.8209 -13.137 0.00725548 71 46 102
50.4456 -34.8067 0.386813 45 73 91
50.5258 -34.8692 0.387641 39 69 94
50.7231 -35.0748 0.388473 44 71 114
50.7856 -35.1444 0.389085 43 72 115
50.8373 -35.1927 0.384154 39 73 118
50.9063 -35.1897 0.379253 46 78 122
50.8524 -18.0688 0.33954 59 86 79
51.1219 -35.1384 0.315814 52 88 120
51.1833 -35.1281 0.308863 50 85 115
51.2605 -35.1418 0.270962 49 84 114
51.3937 -35.0744 0.254581 52 83 117
51.4517 -35.0597 0.244774 61 90 124
51.2602 -17.4577 0.194486 64 84 82
51.5281 -35.0745 0.218736 59 88 119
51.7199 -35.0582 0.179112 55 82 103
51.7981 -35.0734 0.155588 80 93 114
51.866 -35.0767 0.139848 40 40 70
51.9332 -35.0737 0.127138 62 51 87
52.0017 -35.0733 0.117308 58 45 82
52.204 -35.1251 0.107101 64 32 106
52.2736 -35.2117 0.0864116 94 48 162
52.34 -35.2096 0.0871971 90 38 167
52.4048 -35.2149 0.0861296 92 38 168
52.4057 -35.2749 0.0748534 91 38 169
52.5372 -35.2766 0.0744755 91 38 171
52.5446 -35.3461 0.0635997 94 37 174
52.6062 -35.3446 0.0643018 92 37 174
52.679 -35.4122 0.0538956 93 38 176
52.7424 -35.4144 0.0534541 93 39 177
52.8103 -35.4765 0.0445114 92 40 177
52.8835 -35.4814 0.0426798 94 40 180
52.8795 -35.5272 0.0409158 94 40 178
52.9454 -35.5449 0.0403334 95 41 180
53.0015 -35.5963 0.0388063 96 39 178
53.3517 -14.287 0.00907842 73 48 103
54.3671 -16.0411 0.00842435 83 53 107
54.9044 -15.225 0.00866942 77 48 109
55.3787 -15.633 0.00907522 75 50 107
55.6469 -12.0562 0.00761485 74 50 102
55.7179 -16.4369 0.0346032 85 55 109
55.7151 -12.1276 0.00815377 74 50 102
55.7818 -12.2627 0.00714872 77 50 102
56.3232 -13.0762 0.0079902 77 51 109
56.3873 -13.1377 0.00829078 83 55 113
56.4533 -12.868 0.00812655 77 48 104
56.5244 -12.6627 0.00818956 75 51 103
59.9674 -9.89903 0.00515471 73 71 95
60.0379 -14.2871 0.00649958 82 93 111
60.0354 -9.96628 0.00493607 87 95 113
60.1021 -14.4183 0.00574084 94 99 122
52.6966 -29.322 1.99933 83 47 145
52.6121 -29.0624 2.04151 82 46 144
52.0921 -30.0101 1.87525 75 55 93
55.7846 -25.7607 2.24362 78 52 121
50.3743 -34.5974 0.391884 45 81 105
50.5095 -34.6741 0.390646 44 83 108
50.5832 -34.7382 0.39064 44 80 111
50.5923 -34.8036 0.390495 42 77 111
50.6601 -34.8716 0.39282 46 82 116
50.7244 -34.8736 0.391709 47 80 114
50.7223 -34.9354 0.39077 49 79 118
50.7882 -35.0068 0.390854 45 73 114
50.9219 -35.0821 0.389348 44 80 118
50.9082 -35.1279 0.384797 39 74 115
51.0045 -35.1106 0.376964 49 87 124
51.1916 -35.0732 0.316733 57 92 122
51.3318 -35.0792 0.271779 51 85 116
51.4605 -35.0074 0.257513 61 92 124
51.5129 -34.9936 0.248138 58 88 116
51.7286 -35.0063 0.188396 62 87 107
51.7834 -34.9933 0.180021 76 91 109
51.8444 -34.9836 0.182702 33 33 60
51.9337 -35.0062 0.144114 59 48 84
52.0012 -35.0084 0.130834 59 45 82
52.0701 -35.0088 0.129322 65 49 87
52.1346 -35.0111 0.128092 70 50 93
52.2072 -35.0758 0.115501 63 34 97
52.2753 -35.0744 0.115125 95 50 154
52.002 -16.9843 0.131458 80 70 82
52.2712 -35.1277 0.107975 93 50 153
52.4738 -35.2061 0.0879897 93 40 171
52.5449 -35.2149 0.0862127 90 38 171
52.6095 -35.2764 0.0749217 91 38 174
52.6764 -35.2809 0.0745646 94 38 176
52.7426 -35.3454 0.0643861 94 39 178
52.8036 -35.3449 0.0636278 95 39 178
52.8799 -35.415 0.0533053 96 41 181
52.9455 -35.4119 0.0533288 97 40 180
52.952 -35.4782 0.0434399 96 39 180
53.015 -35.4785 0.0437217 98 39 181
53.0803 -35.4813 0.0425923 98 40 180
53.087 -35.536 0.041202 97 39 181
53.1454 -35.5438 0.0392764 98 40 182
58.4862 -36.6274 0.00547504 80 45 152
58.5522 -36.4934 0.00558891 81 43 152
58.2095 -15.0265 0.00737382 72 47 105
58.7524 -11.5158 0.00717498 72 45 98
58.8196 -15.9054 0.00769965 79 55 108
52.4116 -21.0379 1.66488 79 49 108
55.7164 -16.9879 0.131576 86 55 112
50.3802 -34.4039 0.393196 47 86 111
50.449 -34.4721 0.394347 45 81 108
50.4451 -34.529 0.393835 45 83 110
50.5122 -34.5375 0.393388 47 83 109
50.5148 -34.6043 0.392131 49 85 111
50.5774 -34.6678 0.392311 46 83 111
50.6618 -34.738 0.393051 49 87 115
50.8579 -34.8759 0.394741 47 84 114
50.9167 -34.942 0.394719 47 84 117
50.9199 -35.0082 0.393494 46 81 118
50.9923 -35.012 0.394146 51 87 120
51.0301 -35.0449 0.392113 53 89 122
51.1955 -35.01 0.336861 54 89 119
51.2589 -35.0057 0.319578 51 86 116
51.3142 -34.9833 0.313057 56 89 121
51.3963 -35.0094 0.276515 54 86 119
51.4638 -34.9432 0.277966 58 89 119
51.5318 -34.9404 0.258854 56 87 111
51.5874 -34.928 0.248087 60 88 109
51.3999 -17.341 0.177579 51 74 73
51.6654 -34.94 0.223645 61 87 110
51.7325 -34.9412 0.206038 59 82 101
51.8633 -34.9238 0.180048 48 44 71
51.9327 -34.8724 0.178093 66 50 85
52.0034 -34.8804 0.162688 63 47 84
52.0718 -34.9366 0.147608 67 50 89
52.1385 -34.9451 0.144937 73 51 94
52.2034 -35.0055 0.130387 70 42 99
52.3419 -35.0741 0.115775 96 43 166
52.4068 -35.0758 0.115333 93 40 168
52.5352 -35.1295 0.109599 90 38 172
52.5897 -35.1278 0.106512 91 38 172
52.6785 -35.2132 0.0864976 93 39 175
52.7474 -35.2129 0.0863295 95 38 176
52.7449 -35.2772 0.0742717 96 38 176
52.8145 -35.2801 0.0742422 98 37 176
52.8774 -35.2796 0.0741256 97 37 176
52.88 -35.344 0.0636365 96 38 177
52.9483 -35.3472 0.0642528 96 39 177
53.0837 -35.4166 0.0529921 95 38 177
53.1511 -35.4809 0.0433452 96 39 180
53.2169 -35.4816 0.0426962 95 40 178
53.2192 -35.524 0.0411955 97 40 181
53.2866 -35.5459 0.0409447 97 38 181
53.3491 -35.5987 0.0386747 96 37 179
53.6262 -14.0853 0.00855692 79 52 107
53.896 -36.0207 0.0091365 100 38 188
55.9184 -12.7318 0.00870859 76 52 104
57.062 -14.2849 0.00694108 79 51 109
52.4745 -16.5151 0.0447807 79 56 102
58.1461 -30.5558 1.73635 94 57 156
50.3195 -34.2022 0.395695 48 87 113
50.3776 -34.2629 0.396333 47 87 112
50.4503 -34.3375 0.396554 46 85 111
50.513 -34.4587 0.396259 50 84 110
50.7204 -34.6056 0.39696 50 89 116
50.7923 -34.6724 0.398993 49 84 114
50.8564 -34.7362 0.398027 51 86 115
50.8604 -34.802 0.396143 51 86 115
50.9202 -34.8058 0.398144 49 83 113
50.9237 -34.87 0.396295 49 86 115
50.985 -34.9379 0.396506 47 83 114
51.1183 -34.9383 0.38577 54 89 119
51.1974 -34.9411 0.360341 49 85 115
51.2637 -34.9422 0.339548 55 88 119
51.3263 -34.9349 0.323472 44 79 108
51.3241 -17.7833 0.296148 56 78 72
51.5963 -34.8723 0.262817 59 85 107
51.3904 -17.7788 0.302409 58 77 70
51.6605 -34.8657 0.247387 61 86 111
51.7131 -34.8546 0.245636 65 91 109
51.7988 -34.8734 0.209339 64 70 88
51.8652 -34.8678 0.194138 55 49 74
51.9324 -34.8046 0.195826 65 49 84
52.1061 -34.8659 0.175143 72 51 92
52.137 -34.8755 0.162516 70 50 95
52.2026 -34.8705 0.163828 62 36 94
52.2064 -34.9344 0.146957 63 35 95
52.2763 -34.9415 0.146471 90 47 143
52.3393 -34.9376 0.14602 92 44 159
52.3434 -35.0066 0.129124 94 43 164
52.4093 -35.0061 0.130298 92 40 166
52.477 -35.01 0.128289 92 39 170
52.4756 -35.0773 0.114587 92 39 172
52.541 -35.0732 0.115971 91 38 170
52.6084 -35.0794 0.113969 92 39 173
52.7332 -35.1331 0.106854 94 38 174
52.6108 -16.5098 0.0442967 79 54 104
52.8795 -35.2155 0.0858995 98 38 176
52.9478 -35.2752 0.0749995 99 38 176
53.0207 -35.2806 0.0743062 96 38 176
53.0844 -35.3436 0.0640555 95 38 177
53.1517 -35.3491 0.0629354 96 39 178
53.1445 -35.4119 0.0533804 95 39 177
53.2142 -35.4137 0.0532377 93 39 177
53.2846 -35.418 0.0521623 92 40 177
53.2853 -35.4776 0.0432817 94 38 176
53.3522 -35.4785 0.0434916 93 38 177
53.4198 -35.5288 0.0418887 95 39 179
53.4852 -35.5502 0.0398245 96 39 178
53.5245 -35.5999 0.0386032 95 36 179
54.4371 -15.3 0.00853529 73 48 106
54.6316 -15.9081 0.00718772 85 56 114
55.1735 -11.859 0.0075188 74 47 104
55.2448 -11.9942 0.00747596 75 47 106
55.3046 -16.3808 0.0292392 87 57 111
55.3772 -12.1244 0.00858719 76 51 104
56.794 -14.6265 0.00839946 79 51 111
59.6309 -12.3285 0.00684144 81 57 105
59.6982 -16.4421 0.0341122 81 57 107
59.9664 -10.3703 0.00568283 66 67 87
60.0358 -14.6263 0.00664439 75 87 105
51.6665 -25.9565 2.21238 52 41 67
50.3174 -34.0577 0.400103 51 87 111
50.5224 -34.271 0.399546 51 88 113
50.5797 -34.3264 0.400943 49 84 111
50.6468 -34.3365 0.400464 48 84 110
50.6518 -34.4021 0.399454 48 85 111
50.7133 -34.4676 0.400126 51 89 114
50.7927 -34.5356 0.400369 53 90 115
51.0524 -34.8022 0.401383 53 86 117
51.1238 -34.8767 0.401079 53 88 118
51.2361 -34.8638 0.38014 51 85 115
51.328 -34.8737 0.344018 54 92 118
51.3968 -34.868 0.325229 53 88 117
51.4523 -34.8506 0.316308 59 91 118
51.517 -34.7948 0.314911 58 86 108
51.7296 -34.7999 0.249544 66 86 100
51.7961 -34.7793 0.244474 59 61 76
51.8742 -34.7431 0.228625 66 55 83
51.9371 -34.7397 0.213541 61 47 80
52.0014 -34.7386 0.200142 61 46 82
52.0787 -34.8022 0.18151 68 51 88
52.1436 -34.8039 0.181539 62 44 91
52.2062 -34.8034 0.181014 62 40 93
52.0006 -17.2539 0.20346 74 62 81
52.2578 -34.8569 0.177476 74 38 120
52.3378 -34.8733 0.163686 90 45 158
52.407 -34.9379 0.14668 91 41 164
52.4744 -34.9421 0.146156 93 40 171
52.5468 -35.0089 0.129173 92 39 170
52.6104 -35.0085 0.129586 91 38 169
52.6792 -35.0711 0.115834 92 38 172
52.7466 -35.0739 0.115683 93 40 173
52.8137 -35.0783 0.114091 95 40 173
52.8093 -35.1162 0.108906 95 40 174
52.8711 -35.1273 0.108048 96 41 174
52.939 -35.1313 0.106291 96 41 174
52.679 -16.5165 0.0450624 80 53 104
52.9475 -35.2086 0.0872242 97 40 176
53.0832 -35.2127 0.0860017 97 40 175
53.0863 -35.275 0.074824 96 40 177
53.1498 -35.2778 0.0745485 97 39 176
53.215 -35.282 0.0733867 96 39 175
53.216 -35.3442 0.0636623 95 40 177
53.2852 -35.3437 0.0641381 92 40 177
53.3527 -35.4098 0.0543534 92 39 179
53.4185 -35.4155 0.052877 93 39 178
53.4922 -35.4798 0.0434145 95 40 176
53.5571 -35.4809 0.042805 96 40 177
53.5729 -35.5217 0.0425975 96 39 178
53.6992 -35.541 0.0395112 99 39 182
55.176 -11.9918 0.00847863 72 46 104
55.2424 -16.4386 0.0335271 87 57 111
55.244 -12.122 0.00840118 76 51 105
56.8685 -14.5575 0.00801175 77 49 108
57.4692 -13.2761 0.00808613 75 47 105
57.6044 -13.3368 0.00749795 75 50 106
58.4853 -36.0893 0.00544568 105 52 186
58.5525 -35.8845 0.0090472 112 54 193
58.2144 -14.5542 0.00788266 75 50 104
58.6847 -36.6264 0.00542447 81 43 152
58.2806 -10.7725 0.00635388 69 45 97
58.3441 -15.1619 0.00760292 73 48 106
59.293 -11.7198 0.00743874 71 47 99
59.3596 -15.975 0.00833316 84 55 109
52.3425 -30.8885 1.66977 87 44 153
50.3142 -33.8615 0.406018 49 87 108
50.3858 -33.9294 0.405183 47 86 107
50.3867 -33.9904 0.401169 47 85 106
50.4552 -33.9989 0.402786 47 88 108
50.4586 -34.0665 0.401243 44 84 104
50.5187 -34.06 0.402786 48 89 109
50.5196 -34.1263 0.402184 49 87 108
50.5864 -34.194 0.402152 47 84 107
50.6528 -34.2636 0.402431 49 86 110
50.8561 -34.4002 0.403676 53 89 113
50.9263 -34.4695 0.405642 49 88 110
50.9266 -34.5311 0.403468 48 87 110
50.9903 -34.5383 0.404596 50 86 113
50.9914 -34.6031 0.403511 56 91 119
51.0571 -34.6661 0.404171 51 87 114
51.1203 -34.7371 0.403797 51 87 115
51.2574 -34.8058 0.389817 54 89 117
51.3152 -34.7896 0.379481 53 92 117
51.3948 -34.8037 0.348182 60 94 122
51.4607 -34.8032 0.328334 61 91 117
51.5897 -34.7253 0.31663 62 90 109
51.7945 -34.7308 0.253291 55 56 71
51.8669 -34.671 0.251984 70 59 88
52.0008 -34.6706 0.220714 62 46 82
52.0692 -34.7361 0.19899 64 48 84
52.135 -34.7359 0.199718 65 49 92
51.9374 -17.1407 0.173001 101 91 101
52.2076 -34.739 0.198218 65 45 93
52.2728 -34.7999 0.182714 76 39 126
52.1353 -17.2541 0.203293 81 64 88
52.4103 -34.8479 0.179826 92 41 167
52.5399 -34.8729 0.163148 92 39 169
52.543 -34.94 0.145394 93 39 169
52.6814 -34.9395 0.146083 90 39 170
52.6766 -35.0066 0.129088 91 38 170
52.7477 -35.007 0.129552 93 39 171
52.8122 -35.008 0.129039 96 40 173
52.8783 -35.0726 0.115938 97 41 174
52.9467 -35.0757 0.115273 96 40 173
53.0082 -35.1192 0.110489 96 40 173
53.0912 -35.1282 0.106919 96 42 174
53.1476 -35.2078 0.0878461 97 40 173
53.215 -35.2125 0.0864687 94 40 173
53.2861 -35.2759 0.0748983 92 39 175
53.3513 -35.2808 0.0741815 92 40 177
53.4245 -35.3426 0.064192 94 40 178
53.4922 -35.3485 0.0629534 97 40 178
53.4899 -35.4109 0.0531554 97 40 177
53.5565 -35.4141 0.0532971 96 39 177
53.6241 -35.418 0.0519597 97 40 178
53.6245 -35.4779 0.0433654 98 39 179
53.6882 -35.4777 0.0435808 98 41 180
53.7752 -35.5256 0.0422241 101 39 182
53.8783 -35.6024 0.0384562 105 42 187
55.717 -13.4764 0.00795626 80 51 109
56.123 -12.3303 0.00807978 75 50 102
56.7284 -10.9095 0.00814774 70 46 97
56.798 -15.1648 0.00826583 78 52 108
59.2244 -9.35634 0.00590652 71 47 97
59.2908 -15.1665 0.00770887 77 50 104
57.2676 -21.7095 1.8176 83 58 116
50.3168 -33.7945 0.423623 48 86 107
50.3828 -33.8586 0.407055 50 90 110
50.4488 -33.8639 0.407616 51 89 111
50.4563 -33.9294 0.404163 50 90 111
50.7114 -34.1283 0.407895 50 88 111
50.7172 -34.1963 0.404857 54 91 112
50.7799 -34.1997 0.406511 51 92 112
50.7862 -34.2668 0.405037 51 89 110
50.8446 -34.2663 0.406145 52 89 110
50.8579 -34.3296 0.405576 51 88 110
50.93 -34.336 0.407045 50 88 109
50.9306 -34.3998 0.407126 49 88 109
51.2639 -34.6719 0.409429 55 91 117
51.3266 -18.3308 0.49649 57 79 70
51.2666 -34.7398 0.404027 53 89 117
51.3248 -34.7364 0.393866 52 90 116
51.4302 -34.7222 0.382954 59 90 113
51.5313 -34.7401 0.329504 58 88 108
51.5951 -34.6707 0.333307 62 89 105
51.6536 -34.6629 0.319158 65 90 104
51.7159 -34.6505 0.310808 78 91 106
51.8685 -34.6026 0.273694 65 53 84
51.9376 -34.6034 0.254139 62 48 81
51.9934 -34.5918 0.245341 61 45 81
52.0681 -34.5889 0.243793 67 51 89
52.0687 -34.673 0.218498 64 48 85
52.1381 -34.6693 0.219429 68 53 96
52.2063 -34.6725 0.217858 64 46 98
52.272 -34.7363 0.199602 71 37 120
52.3368 -34.7361 0.199025 93 49 159
52.4061 -34.8021 0.181323 92 42 165
52.4733 -34.8033 0.181805 92 40 169
52.3399 -17.257 0.204053 80 62 89
52.6004 -34.8548 0.178089 90 39 170
52.6772 -34.873 0.163735 93 38 170
52.7476 -34.9375 0.146679 93 38 171
52.8108 -34.941 0.146391 94 38 171
52.8795 -35.007 0.12895 96 39 172
52.9482 -35.0093 0.129081 95 38 171
53.0152 -35.008 0.129039 94 40 172
53.0806 -35.0752 0.115442 95 41 173
53.1444 -35.0736 0.115052 94 43 174
53.168 -35.1175 0.111478 94 42 174
53.2138 -35.1232 0.107963 94 41 175
53.2866 -35.1288 0.106241 92 40 175
53.2841 -35.2088 0.0867622 92 39 175
53.3545 -35.2109 0.0869987 92 40 177
53.4207 -35.2148 0.0854979 96 39 178
53.4173 -35.2738 0.0746828 94 40 178
53.4841 -35.2781 0.0738772 98 39 179
53.623 -35.3465 0.063659 96 40 177
53.6901 -35.3439 0.0634682 96 41 178
53.6966 -35.411 0.0531104 97 41 178
53.761 -35.4141 0.0534057 97 38 178
53.8273 -35.4155 0.0523823 100 39 181
53.823 -35.4775 0.04308 101 41 182
53.891 -35.4807 0.0431101 99 40 180
53.965 -35.5274 0.0420449 102 43 185
54.0407 -35.5959 0.0441443 103 43 187
55.5792 -11.7917 0.0078676 71 47 97
55.6462 -16.0418 0.00915261 88 57 111
56.1887 -12.3965 0.00792012 73 49 101
56.5274 -11.6507 0.00765652 75 47 98
56.6583 -12.3297 0.00819746 73 49 101
56.7287 -10.9781 0.00699411 71 46 101
56.8013 -15.3661 0.00754779 79 50 108
57.4068 -13.6099 0.00828835 76 48 106
57.4714 -13.6793 0.00815872 75 47 105
58.8199 -36.1574 0.00536541 96 51 169
58.4147 -10.5077 0.00637897 69 44 94
58.4814 -15.2338 0.00729774 75 50 107
52.6131 -31.028 1.64249 86 43 154
52.0741 -20.5453 1.51616 77 62 87
52.064 -27.287 2.19809 73 58 88
51.8662 -21.7769 1.81879 78 62 88
50.357 -33.7798 0.442482 50 87 109
50.3786 -33.7893 0.428121 50 86 109
50.4463 -33.7996 0.429083 49 86 108
50.6563 -33.9268 0.409489 53 88 112
50.7206 -33.9965 0.409215 49 85 110
50.7234 -34.0602 0.408965 46 83 110
50.7839 -34.0619 0.409304 47 86 112
50.996 -34.2676 0.410203 69 104 124
51.0569 -34.3335 0.410376 57 90 113
51.1248 -34.4059 0.41062 58 91 111
51.1838 -34.4692 0.41099 59 92 108
51.3351 -18.2029 0.448812 66 86 77
51.2721 -34.6002 0.411031 53 90 112
51.3319 -34.6713 0.40722 50 89 112
51.4518 -34.6525 0.385112 62 92 113
51.5318 -34.6402 0.380616 61 90 108
51.5992 -34.6037 0.355779 64 91 106
51.6651 -34.6003 0.336252 74 99 113
51.7307 -34.5948 0.318879 94 100 118
51.8351 -34.5801 0.309127 69 58 87
52.0026 -34.5387 0.259629 64 48 83
52.1416 -34.5838 0.246081 62 49 87
52.2101 -34.5983 0.243165 62 43 92
52.2729 -34.6671 0.220062 63 35 106
52.3408 -34.6708 0.218427 93 49 156
52.4104 -34.7351 0.199308 91 41 164
52.4749 -34.7388 0.198818 91 39 168
52.4096 -17.1828 0.184318 81 60 95
52.678 -34.805 0.180501 95 38 171
52.4785 -17.185 0.184879 83 58 102
52.7416 -34.8046 0.180584 94 38 171
52.475 -17.2552 0.204198 87 60 103
52.7547 -34.8457 0.180447 95 39 172
52.7918 -34.8619 0.176347 94 38 171
52.8127 -34.8739 0.162772 93 39 172
52.8794 -34.8745 0.162583 92 39 171
52.8779 -34.939 0.145678 95 39 172
52.9495 -34.9401 0.145895 93 39 171
53.0164 -34.9399 0.146064 93 42 173
53.0817 -35.0079 0.129193 94 42 174
53.2174 -35.0715 0.115994 93 40 174
53.2865 -35.0774 0.114766 94 40 176
53.3568 -35.1208 0.11081 93 40 177
53.422 -35.135 0.107233 98 38 178
53.4899 -35.2112 0.0861737 98 38 178
53.5551 -35.2111 0.0871355 97 38 178
53.6232 -35.2111 0.0861148 95 40 178
53.6241 -35.2784 0.0738981 96 41 178
53.6928 -35.278 0.0743936 96 41 179
53.7595 -35.2825 0.0732786 97 40 179
53.7585 -35.3455 0.063381 98 39 180
53.8257 -35.3447 0.0637553 99 40 180
53.8969 -35.4129 0.0532416 99 40 181
53.9615 -35.4149 0.0531425 101 40 183
54.029 -35.4771 0.0436237 101 40 186
54.1144 -35.5246 0.041078 102 42 189
54.7706 -16.2426 0.0159468 86 57 113
55.3747 -14.9638 0.00868675 80 52 111
59.8287 -36.7636 0.00505591 117 122 211
59.4282 -10.3055 0.00596943 71 44 95
59.4956 -14.6867 0.00749147 75 50 105
50.3189 -33.717 0.456616 50 91 111
50.3877 -33.7266 0.456431 47 88 108
50.4726 -33.7691 0.44641 48 88 109
50.5769 -33.8027 0.434941 50 88 113
50.5938 -33.8617 0.416123 51 87 111
50.6571 -33.8583 0.419751 49 85 112
50.7269 -33.9309 0.410469 51 87 113
50.851 -33.9275 0.413492 51 86 112
50.854 -33.9963 0.412321 49 85 110
50.9201 -34.0634 0.412886 49 85 108
50.9894 -34.1296 0.412474 51 89 108
51.0655 -34.1959 0.413229 55 91 109
51.3314 -34.4017 0.415082 61 90 110
51.3335 -34.4701 0.414132 55 90 108
51.3956 -34.5348 0.414822 57 90 108
51.463 -34.5989 0.39918 58 87 107
51.5247 -34.5881 0.384269 63 92 110
51.6341 -34.5577 0.378275 74 97 109
51.729 -34.5361 0.339286 73 75 94
51.7951 -34.5332 0.320776 63 53 80
51.8535 -34.5152 0.312882 61 50 78
51.9977 -34.4717 0.282228 68 53 87
52.0683 -34.5377 0.259344 69 53 88
52.1351 -34.5322 0.259627 62 49 84
52.2033 -34.5386 0.258256 65 49 91
52.0023 -17.5257 0.283777 78 64 84
52.2757 -34.5839 0.245262 58 34 98
52.1387 -17.5274 0.284623 77 64 85
52.4089 -34.5862 0.244238 90 40 162
52.4077 -34.6695 0.219208 91 41 163
52.4759 -34.6732 0.217595 91 40 168
52.5415 -34.6687 0.219571 91 40 169
52.8085 -34.8023 0.181696 92 39 171
52.8786 -34.8048 0.181203 91 39 170
52.9471 -34.8528 0.178712 92 41 172
53.0029 -34.8771 0.172529 92 42 173
53.0817 -34.9348 0.147173 94 43 174
53.1476 -34.9413 0.145134 93 41 173
53.2143 -34.9403 0.145778 93 40 174
53.2157 -35.0033 0.130178 94 40 174
53.284 -35.0071 0.129323 94 41 175
53.3546 -35.0127 0.12801 94 40 175
53.4222 -35.0741 0.115429 97 39 177
53.4876 -35.0776 0.114159 96 38 177
53.5453 -35.1203 0.108539 97 38 178
53.6112 -35.1353 0.107803 95 40 178
53.693 -35.2072 0.0874922 95 41 179
53.7601 -35.2132 0.0864378 98 40 179
53.8928 -35.2815 0.0738113 101 39 180
53.9634 -35.346 0.0637646 101 39 181
54.0283 -35.3452 0.0631714 99 40 180
54.0986 -35.4148 0.0529266 98 41 182
54.1636 -35.4145 0.0525424 98 43 182
54.1629 -35.4772 0.043133 101 43 186
54.2292 -35.4788 0.0432866 101 44 185
54.3103 -35.5306 0.0417394 107 49 191
54.3713 -35.5415 0.0394334 108 48 191
54.3852 -35.5848 0.0402758 103 41 186
54.4168 -35.606 0.0382321 103 41 186
54.9048 -12.1189 0.00736654 72 48 100
54.9694 -14.5547 0.00874925 83 53 112
56.1145 -11.7922 0.00779197 69 45 97
56.1908 -16.3139 0.0238361 83 54 110
56.2564 -12.0605 0.00882884 75 47 100
56.5253 -12.3937 0.00774715 74 49 103
56.5981 -16.1796 0.0145903 84 53 107
56.6583 -11.7153 0.0075508 75 46 100
56.7264 -16.1125 0.0125466 86 54 109
56.9265 -10.9732 0.00698536 70 46 97
56.9993 -15.3703 0.00836094 75 50 108
57.5387 -12.192 0.00724037 72 48 100
57.6089 -16.4407 0.034093 85 56 110
58.2168 -14.0818 0.00787008 73 48 106
58.5472 -35.5059 0.0364011 109 52 185
58.2125 -14.1508 0.00728746 73 48 105
58.2136 -9.7645 0.00701882 68 44 94
58.2808 -14.1512 0.0077264 73 48 105
52.1428 -26.5063 2.23993 80 62 96
58.3504 -22.7227 2.01379 85 62 118
58.5486 -20.9008 1.62983 84 59 113
50.4491 -33.7245 0.463708 45 87 108
50.5895 -33.772 0.45205 51 90 115
50.6565 -33.7841 0.449632 49 86 113
50.7604 -33.8414 0.442972 52 87 115
50.7885 -33.8603 0.425714 49 83 110
50.8532 -33.8639 0.428848 54 85 113
51.1324 -34.0681 0.416723 61 90 112
51.1867 -34.1316 0.417359 58 88 106
51.193 -34.1935 0.415941 56 91 105
51.2569 -34.1975 0.417225 57 89 103
51.257 -34.264 0.416361 56 92 104
51.3236 -34.2635 0.417135 57 89 106
51.3318 -34.3266 0.416658 60 91 110
51.3978 -34.4043 0.417799 62 89 109
51.6613 -34.4615 0.386861 79 95 106
51.722 -34.4574 0.376445 37 35 56
51.8025 -34.4677 0.340794 61 51 77
51.8646 -34.4628 0.323891 63 50 77
52.0689 -34.47 0.28005 64 49 83
52.1372 -34.4681 0.28159 63 48 86
51.9004 -17.423 0.241163 108 95 113
51.9407 -17.4178 0.242268 72 59 79
52.2009 -34.4716 0.27952 65 48 91
52.2728 -34.5329 0.260548 60 36 101
52.2731 -17.525 0.283887 82 63 85
52.5399 -34.5899 0.244241 92 39 170
52.6103 -34.6739 0.218024 94 38 171
52.6737 -34.6684 0.219619 95 38 171
52.7423 -34.6715 0.218578 93 38 171
52.8151 -34.7364 0.198893 91 40 169
52.8833 -34.7393 0.19787 91 40 171
52.9455 -34.8006 0.181572 91 40 171
53.0101 -34.8022 0.181701 92 41 172
52.8144 -17.1844 0.184623 81 54 105
53.0781 -34.8042 0.180671 94 41 173
52.8128 -17.2554 0.204284 79 54 105
53.1032 -34.8436 0.181085 93 40 172
53.2179 -34.8763 0.162093 92 41 172
53.2808 -34.9359 0.146924 93 42 174
53.3541 -34.9409 0.14564 92 40 172
53.4915 -35.0106 0.128502 95 39 177
53.5564 -35.0128 0.127445 96 39 178
53.5585 -35.0757 0.114467 96 39 178
53.6268 -35.0771 0.1141 95 41 179
53.6807 -35.1143 0.109228 96 40 179
53.7526 -35.1224 0.108099 97 39 179
53.8293 -35.2094 0.0864341 101 39 179
53.8969 -35.2137 0.0860043 100 39 179
53.964 -35.2097 0.0866654 97 40 179
53.962 -35.2779 0.0739277 100 40 180
54.0307 -35.2775 0.0743742 97 41 178
54.0996 -35.3429 0.0635713 97 42 180
54.2997 -35.4146 0.0528646 101 45 184
54.3654 -35.4142 0.0525561 105 44 184
54.4262 -35.481 0.0429055 107 43 185
54.4977 -35.5304 0.0430315 106 43 185
54.5592 -35.5457 0.0402867 104 42 186
57.4069 -11.9938 0.00685253 74 47 100
57.473 -16.3768 0.0289391 88 57 114
57.6695 -13.4094 0.00747283 74 48 105
59.0236 -35.6166 0.026197 111 54 191
58.6886 -13.2743 0.00743969 73 48 103
59.8988 -36.6274 0.00491334 112 126 213
59.4918 -10.9794 0.00649978 69 45 95
59.5629 -15.2969 0.00730423 75 52 108
52.4057 -16.3814 0.0294525 79 55 101
55.1086 -28.0553 2.1217 89 55 141
57.6707 -18.5355 0.667226 85 56 110
50.3791 -33.6104 0.502226 46 88 107
50.3855 -33.6615 0.482533 50 93 112
50.4514 -33.6574 0.485729 44 88 107
50.5185 -33.6612 0.489149 43 85 106
50.5781 -33.7192 0.470953 43 85 107
50.6463 -33.7289 0.471065 48 86 111
50.7905 -33.7893 0.456147 50 82 109
50.8748 -33.8339 0.453089 54 87 112
50.9315 -33.845 0.446375 52 87 107
50.9863 -33.8746 0.431474 55 90 108
50.9868 -33.9282 0.418795 55 90 108
51.0576 -33.9274 0.420337 55 89 106
51.1255 -33.928 0.422945 58 87 105
51.1329 -33.9964 0.418305 59 88 108
51.1933 -33.9979 0.42132 58 85 102
51.1943 -34.0626 0.419965 56 84 102
51.4662 -34.2698 0.422341 57 89 98
51.5276 -34.4 0.419569 63 94 108
51.7342 -34.396 0.387115 28 20 45
51.867 -34.4004 0.34472 65 52 80
51.9971 -34.3343 0.330435 65 50 82
52.0829 -34.3773 0.314144 64 49 84
