ply
format ascii 1.0
comment Created by Open3D
element vertex 1383
property double x
property double y
property double z
property uchar red
property uchar green
property uchar blue
end_header
51.9936 -26.8435 2.21908 75 60 87
52.006 -26.9153 2.2159 78 59 88
52.0709 -26.9772 2.21366 75 60 88
52.1389 -26.977 2.21254 73 58 93
52.1384 -27.043 2.20934 74 58 92
52.272 -27.1102 2.20422 83 53 125
52.3404 -27.1668 2.20284 82 47 132
52.5417 -27.254 2.19957 80 49 133
52.5968 -27.2942 2.19762 78 48 131
52.6138 -27.3147 2.18634 78 47 130
52.6755 -27.3806 2.18081 79 49 131
52.7483 -27.3825 2.18169 78 49 131
52.8123 -27.4458 2.17564 78 49 133
52.7448 -24.0717 2.16735 75 48 117
52.8841 -27.4526 2.17492 78 49 133
52.9509 -27.5145 2.17022 78 49 131
53.0155 -27.513 2.16864 79 48 131
53.0891 -27.5857 2.1633 78 49 131
53.1513 -27.6494 2.15873 80 50 132
53.2166 -27.6525 2.15684 81 49 133
53.2156 -27.7174 2.15191 80 48 133
53.3518 -27.7778 2.14707 84 51 136
53.6268 -27.9198 2.13476 80 50 135
53.6856 -23.7331 2.138 77 51 119
53.7431 -27.9788 2.13639 78 49 133
53.7621 -23.7974 2.14438 75 52 120
53.8389 -28.0581 2.13251 83 49 136
53.8986 -28.1208 2.11824 82 50 137
53.9665 -28.1258 2.11731 80 49 135
53.9613 -23.6518 2.12816 78 51 120
54.0283 -28.188 2.11128 83 49 137
54.0962 -28.1932 2.11101 82 49 137
54.0974 -23.4 2.09993 76 51 119
54.1595 -28.2552 2.10622 84 49 139
54.228 -28.2601 2.10501 84 50 137
54.2918 -28.3244 2.09961 85 51 138
54.3683 -28.3904 2.09498 82 50 137
54.4344 -28.4584 2.08845 81 52 138
54.5648 -28.5231 2.08377 83 52 140
54.7721 -28.5959 2.07817 85 50 140
54.8334 -28.6668 2.07161 85 51 140
54.9733 -28.7337 2.06703 88 54 143
54.9773 -28.7852 2.06759 88 52 142
55.0429 -28.7897 2.06758 87 52 143
55.1126 -28.8514 2.06708 87 52 143
55.1762 -28.8788 2.06507 88 53 144
55.1821 -28.9055 2.06292 88 53 144
55.2461 -28.929 2.05065 88 53 143
55.3138 -28.9975 2.04496 90 54 144
55.3764 -29.0655 2.04003 90 53 145
55.449 -29.0694 2.03919 90 54 144
55.5109 -29.1344 2.02838 91 54 144
55.5813 -29.1347 2.02833 90 52 144
55.717 -29.2033 2.01395 88 53 145
55.8512 -29.2065 2.01338 92 57 148
55.8488 -29.2648 2.00178 91 54 147
55.9213 -29.2657 2.00152 92 57 149
56.0448 -29.3154 1.99957 92 56 148
56.1174 -29.3336 2.00118 93 57 147
56.1874 -29.3371 1.98616 91 55 145
56.1857 -29.405 1.97246 93 57 149
56.3239 -29.4066 1.9724 92 56 146
56.3894 -29.4731 1.96037 93 58 149
56.4579 -29.4751 1.95835 93 58 148
56.5231 -29.4722 1.95863 93 58 149
56.5266 -29.5377 1.94501 93 58 151
56.5918 -29.5398 1.94466 94 57 152
56.66 -29.5442 1.94433 94 57 152
56.727 -29.5966 1.93415 94 57 153
56.7965 -29.5983 1.93395 96 59 155
56.8654 -29.5992 1.93282 95 58 154
56.8851 -29.6531 1.93492 95 58 154
56.9273 -29.6701 1.93147 96 59 155
56.9697 -29.687 1.92801 96 60 155
56.9995 -29.6786 1.91652 95 59 155
57.0665 -29.7389 1.9041 97 61 158
57.1314 -29.7413 1.90326 98 61 158
57.198 -29.7441 1.90335 98 61 157
57.2036 -29.8104 1.88924 97 60 158
50.2293 -19.0509 0.63627 56 85 80
57.2672 -29.8109 1.88884 97 59 156
57.334 -29.8128 1.88903 99 59 156
57.4018 -29.8815 1.87451 99 61 157
57.4678 -29.8812 1.87506 99 62 158
57.5387 -29.8826 1.87527 98 61 157
57.541 -29.9346 1.86406 97 62 156
57.6032 -29.9345 1.86511 97 61 156
57.6701 -29.9355 1.86559 98 63 158
57.7936 -30.0219 1.86712 98 62 157
57.8744 -30.0147 1.84708 95 58 153
58.0095 -30.0826 1.83375 99 62 157
58.0085 -30.1455 1.82025 96 60 154
58.01 -21.6416 1.80116 84 59 116
58.1467 -30.1473 1.82039 96 61 155
58.2109 -30.2152 1.80589 95 60 154
58.3493 -30.2175 1.80561 95 61 152
58.2128 -21.7105 1.81733 84 61 117
58.4107 -30.2652 1.79756 96 62 154
58.4818 -30.2654 1.79627 98 61 156
58.5522 -30.2657 1.79618 97 60 155
58.4991 -21.5946 1.79641 84 62 112
58.6048 -30.3411 1.79444 97 60 156
58.4813 -21.572 1.78469 84 61 113
58.7525 -30.4199 1.76412 95 58 154
58.8209 -30.4176 1.76475 95 58 154
58.758 -21.6094 1.79226 85 61 112
58.8869 -30.4203 1.7638 95 60 154
59.1571 -30.5512 1.73717 97 61 155
59.2261 -30.5984 1.72932 97 60 155
59.2964 -30.6039 1.72833 97 61 155
59.3591 -30.6048 1.72869 96 61 155
59.4339 -30.6779 1.73074 96 60 155
59.4956 -30.6878 1.70894 97 61 156
59.5633 -30.6911 1.70819 97 62 156
59.6286 -30.7557 1.69494 98 62 158
59.6959 -30.7561 1.69541 97 61 157
59.7664 -30.8235 1.68094 98 63 159
59.8989 -30.8254 1.68049 100 65 162
52.2677 -15.8353 0.00800061 77 54 101
53.0877 -15.9713 0.00762725 82 53 105
53.4199 -36.7641 0.00851424 71 34 148
53.4806 -16.0376 0.00871365 82 54 105
53.83 -37.3677 0.0077125 70 31 148
53.9623 -37.5765 0.00801685 71 31 148
55.5794 -13.9445 0.00993425 81 52 110
51.2602 -20.9638 1.55532 87 81 92
51.1954 -21.1013 1.57716 57 66 65
51.0558 -21.4997 1.65118 48 63 58
51.0541 -21.5799 1.66971 53 68 67
50.9937 -21.7141 1.69258 50 62 60
51.0623 -30.6257 1.65739 72 98 94
50.9259 -21.845 1.71366 57 68 69
50.8547 -22.1839 1.78256 59 67 76
50.7898 -22.316 1.80206 58 73 70
50.7809 -22.3858 1.81472 54 73 74
50.7223 -22.5171 1.83373 53 71 71
50.7201 -22.8545 1.88284 53 77 72
50.7184 -22.9192 1.89119 54 75 72
50.7223 -22.981 1.90158 50 69 66
50.7208 -23.0606 1.91214 52 71 67
50.717 -23.1194 1.91997 54 76 70
50.7292 -23.1578 1.92766 46 68 61
50.727 -23.2062 1.93082 56 76 74
50.7214 -23.2626 1.93681 50 70 66
50.7798 -23.6655 1.99081 51 68 66
50.8546 -27.9912 2.01206 54 72 72
50.7866 -23.7365 2.00117 52 67 68
50.7881 -23.9432 2.01834 49 65 65
50.862 -28.2583 1.99858 54 71 69
50.7864 -24.0093 2.02378 49 64 62
50.9208 -28.1254 2.00695 64 79 82
50.8543 -24.0669 2.0374 52 67 60
50.9286 -28.0563 2.0152 65 78 84
50.8503 -24.1364 2.04105 47 65 59
50.8562 -24.2056 2.04802 48 67 62
50.8547 -24.283 2.05494 50 68 65
50.8765 -24.3452 2.06487 45 64 57
50.9207 -24.4057 2.07298 56 72 71
50.9181 -24.4763 2.07753 54 68 65
50.9241 -24.5455 2.0825 56 66 64
50.9227 -24.6128 2.08532 57 68 68
51.0512 -24.8779 2.1158 80 65 85
51.0566 -24.9519 2.12001 79 65 84
51.0591 -25.0219 2.12322 79 64 83
51.0905 -25.0469 2.13197 75 60 82
51.1297 -25.1566 2.13693 76 61 84
51.2564 -25.346 2.15596 75 60 83
51.33 -25.4934 2.16813 78 64 87
51.3283 -25.552 2.16978 80 65 88
51.3351 -25.6247 2.17177 80 64 90
51.3928 -25.6916 2.17929 80 65 90
51.4601 -25.8275 2.18803 69 55 81
51.457 -25.8987 2.18756 53 43 68
51.6608 -26.1615 2.20991 77 61 87
51.673 -26.2341 2.20797 76 62 88
51.7321 -26.2989 2.21434 76 60 87
51.741 -26.3752 2.21355 76 60 86
51.797 -26.4378 2.2191 77 61 88
51.8041 -26.4968 2.21887 77 61 87
51.8762 -26.575 2.22304 79 60 87
52.0075 -26.6345 2.23167 77 61 87
52.0634 -26.7779 2.22434 75 60 89
52.1368 -26.7764 2.22408 78 59 96
52.2004 -26.8461 2.22105 77 54 107
52.273 -26.9111 2.21796 79 51 123
52.3417 -26.979 2.213 81 48 129
52.406 -26.9746 2.21259 81 47 130
52.4107 -27.0399 2.20972 81 47 132
52.677 -27.176 2.20093 80 48 132
52.879 -27.3153 2.18594 81 52 135
52.9486 -27.3137 2.18657 78 50 134
52.9478 -27.3822 2.18 78 48 133
53.1512 -27.4527 2.17464 80 49 133
53.2158 -27.5176 2.17046 78 49 132
53.2845 -27.5194 2.16858 78 49 131
53.2854 -27.5868 2.16223 77 48 130
53.3502 -27.5838 2.16376 80 51 133
53.4158 -27.6463 2.1584 79 50 133
53.489 -27.6508 2.15735 81 51 136
53.491 -27.7127 2.15178 78 50 134
53.5553 -27.7195 2.15171 82 50 136
53.6896 -27.8472 2.14023 80 48 135
53.7594 -27.8561 2.14019 80 49 135
53.7554 -23.677 2.13355 78 51 119
53.8206 -27.9171 2.13473 82 51 136
53.896 -27.921 2.13432 83 51 136
54.0959 -23.5328 2.1159 79 53 118
54.1593 -28.1238 2.1162 84 50 138
54.2226 -28.1207 2.11819 83 49 136
54.3005 -28.1953 2.11082 85 51 137
54.3673 -28.19 2.11154 85 51 138
54.4335 -28.2612 2.10611 85 50 139
54.5032 -28.255 2.10551 86 51 140
54.4954 -28.3221 2.09938 84 50 137
54.5636 -28.3298 2.09945 84 51 138
54.6347 -28.3894 2.09584 85 52 139
54.6361 -23.5324 2.11543 78 53 119
54.7079 -28.3964 2.0935 87 51 139
54.701 -28.4624 2.08788 85 51 139
54.767 -28.4636 2.08845 87 52 140
54.8384 -28.5244 2.08392 87 52 141
54.9084 -28.5284 2.08268 86 53 141
54.9059 -28.5921 2.07748 85 52 141
54.9713 -28.6 2.07721 85 52 141
55.0407 -28.6604 2.07305 87 54 143
55.1041 -28.662 2.07198 90 54 144
55.1095 -28.7262 2.06635 91 54 146
55.2431 -28.7275 2.06754 88 53 143
55.3063 -28.7968 2.06557 90 55 145
55.3779 -28.8025 2.06509 89 54 143
55.3798 -28.8507 2.06722 88 53 143
55.432 -28.8834 2.06458 87 52 142
55.5135 -28.9353 2.04969 87 54 143
55.5818 -28.9346 2.04974 86 53 140
55.5783 -29.0046 2.04373 88 55 143
55.6459 -29.0002 2.04435 88 54 141
55.7129 -29.067 2.03872 89 54 144
55.7798 -29.068 2.03899 94 59 149
55.7834 -29.132 2.02842 92 57 148
55.8505 -29.1367 2.0286 92 57 147
55.9142 -29.1357 2.028 92 56 146
55.9842 -29.2053 2.01491 92 56 146
56.0508 -29.2008 2.01442 91 55 145
56.1212 -29.265 2.00154 90 54 144
56.1909 -29.2667 2.00174 91 56 147
56.4591 -29.3371 1.98623 91 56 146
56.457 -29.407 1.97218 92 57 147
56.6626 -29.4713 1.95933 94 59 151
56.7281 -29.4756 1.95825 94 59 153
56.7966 -29.5364 1.94529 95 59 154
56.8616 -29.5399 1.94518 95 60 153
56.9968 -29.6015 1.93311 94 58 153
57.0626 -29.5998 1.93315 94 59 154
57.1308 -29.598 1.93296 96 61 154
57.2067 -29.6727 1.931 96 59 155
57.2679 -29.676 1.91665 96 59 155
57.3366 -29.7435 1.90322 99 59 155
57.4684 -29.7467 1.90204 98 61 157
57.4715 -29.8118 1.88949 100 61 159
57.538 -29.8162 1.88858 98 60 157
57.6053 -29.8101 1.88918 97 61 157
57.6727 -29.8793 1.87525 97 63 158
57.7393 -29.8759 1.8756 96 62 157
57.807 -29.8773 1.87548 96 64 158
57.873 -29.9303 1.86448 96 61 156
57.9426 -29.9355 1.86459 96 60 156
58.0442 -30.0068 1.86278 96 59 155
58.1446 -30.0161 1.84679 96 59 155
58.0206 -21.598 1.79542 84 59 116
58.1457 -30.0798 1.83393 97 60 156
57.8062 -21.7089 1.81717 83 59 116
58.2116 -30.0803 1.83353 96 59 154
57.7382 -21.8455 1.84828 85 62 118
58.2793 -30.0812 1.83394 97 60 155
58.213 -21.6437 1.80146 84 61 117
58.3475 -30.1474 1.82026 96 59 153
58.3431 -21.5975 1.79363 84 60 114
58.4813 -30.1467 1.8199 97 60 153
58.5502 -30.2139 1.80667 96 59 153
58.5485 -21.7778 1.83268 84 60 112
58.6827 -30.2675 1.79722 95 60 154
58.83 -30.3202 1.79877 94 59 153
58.7525 -21.8466 1.84799 86 62 114
58.8739 -30.3378 1.79519 96 61 154
58.8895 -30.353 1.77763 95 60 154
58.956 -30.3491 1.77846 95 60 154
58.8889 -21.5737 1.78489 84 60 112
58.9548 -21.5738 1.78476 85 60 112
59.089 -30.4159 1.76473 97 62 154
59.1605 -30.4857 1.75088 97 62 154
59.3616 -30.552 1.73664 96 62 154
59.4963 -30.5569 1.73564 96 63 154
59.4266 -21.5071 1.76983 88 61 113
59.5571 -30.6002 1.72837 97 63 154
59.4954 -21.506 1.76938 87 62 112
59.6287 -30.5982 1.72816 97 62 154
59.6954 -30.6653 1.72823 97 61 155
59.7652 -30.6874 1.7089 97 61 157
59.6965 -21.0439 1.66255 86 62 114
59.8328 -30.6884 1.70865 97 62 157
59.967 -30.7542 1.6954 99 65 161
51.9374 -14.2826 0.00774179 61 85 76
54.3 -37.5076 0.00724424 72 33 150
54.0901 -16.4435 0.0345119 83 54 110
55.5159 -13.5458 0.00963774 82 51 108
51.3921 -21.0238 1.58406 76 60 85
51.3296 -21.1712 1.61061 78 62 84
51.2592 -21.3727 1.64794 105 89 110
51.3279 -30.4177 1.70958 77 61 90
51.1889 -21.6391 1.70016 92 86 99
51.1219 -21.7626 1.7202 52 61 62
51.178 -29.9532 1.78759 82 67 88
51.062 -21.9143 1.74743 55 66 72
50.9191 -22.444 1.84298 49 66 60
50.8604 -22.5205 1.85094 51 71 66
50.8567 -22.5965 1.86616 48 67 63
50.8538 -22.6532 1.87087 55 73 69
50.859 -23.0673 1.93043 51 65 63
50.8614 -23.134 1.93739 54 71 68
50.8555 -23.1993 1.9449 47 68 61
50.858 -23.2657 1.95294 50 69 66
50.8638 -23.3378 1.96259 50 66 65
50.8535 -23.4018 1.96895 55 70 65
50.8589 -23.4693 1.97759 51 69 66
50.9986 -27.9201 2.03545 93 82 104
50.923 -23.668 2.00876 50 65 59
50.992 -28.1239 2.01533 83 79 100
50.9261 -23.7361 2.01746 51 65 59
50.9915 -28.1927 2.01056 86 77 100
50.9236 -23.931 2.03247 51 66 65
51.0513 -24.3484 2.08276 91 76 99
51.0617 -24.4213 2.09025 85 71 96
51.0545 -24.4659 2.09324 84 69 91
51.0624 -24.5423 2.09833 85 71 90
51.1253 -24.6221 2.1093 80 61 84
51.1209 -24.6831 2.11168 79 62 83
51.1307 -24.7467 2.11782 80 62 83
51.1221 -24.8141 2.1192 81 62 83
51.2598 -25.0189 2.14606 75 59 83
51.2582 -25.0876 2.14646 75 60 82
51.2659 -25.1477 2.15098 75 60 82
51.324 -25.1566 2.15723 76 61 82
51.3247 -25.227 2.16034 75 61 82
51.3257 -25.282 2.16148 75 61 83
51.3254 -25.3553 2.16377 75 61 82
51.4 -25.4868 2.17546 80 64 88
51.5244 -25.6285 2.192 78 62 87
51.5285 -25.6887 2.19219 77 63 86
51.5364 -25.7155 2.19931 77 62 88
51.5412 -25.7553 2.20037 75 62 88
51.6002 -25.7687 2.20231 74 62 87
51.6076 -25.8927 2.20498 52 44 68
51.669 -26.0299 2.21326 68 53 82
51.857 -26.2333 2.22905 78 62 91
51.866 -26.3033 2.22774 77 61 89
51.9282 -26.373 2.23258 77 62 87
51.9337 -26.429 2.23375 77 60 86
51.9985 -26.4998 2.23855 77 61 88
52.0006 -26.5731 2.23399 76 61 88
52.2077 -26.6391 2.23099 80 56 107
52.2069 -26.7006 2.22912 80 55 107
52.3416 -26.7692 2.22474 80 47 126
52.4753 -26.8403 2.22045 77 48 130
52.682 -26.9793 2.21193 79 47 130
52.6769 -27.0432 2.20909 78 49 133
52.7462 -27.0432 2.2107 78 49 132
52.8807 -27.1147 2.2027 79 49 132
52.8817 -27.1685 2.20168 81 48 132
52.9514 -27.1719 2.20183 83 49 135
53.0138 -27.2228 2.20039 82 48 135
53.0893 -27.259 2.20057 82 49 133
53.0956 -27.2845 2.1984 85 53 136
53.1506 -27.3122 2.18658 82 51 133
53.2211 -27.3186 2.18548 80 51 131
53.2179 -27.3813 2.18043 80 50 132
53.289 -27.3811 2.18131 79 50 132
53.3582 -27.449 2.17529 79 50 132
53.4205 -27.5187 2.16894 82 51 135
53.6225 -27.5821 2.16324 84 50 136
53.69 -27.6532 2.15822 83 48 134
53.7565 -27.653 2.15663 84 50 135
53.7561 -27.7163 2.15171 82 48 134
53.8276 -27.7171 2.15132 84 51 137
53.8923 -27.72 2.15189 83 50 136
53.8909 -27.7845 2.1464 81 51 136
53.9608 -27.7912 2.1451 81 51 136
54.0239 -27.8481 2.14165 83 51 137
53.9985 -23.5974 2.13113 77 50 117
54.0935 -27.8576 2.14009 82 51 137
54.0906 -27.9136 2.13547 85 52 138
54.0911 -23.7362 2.13827 75 54 120
54.1563 -27.9179 2.13468 86 52 138
54.2986 -27.9908 2.13517 85 52 138
54.2988 -23.7991 2.14385 79 52 119
54.3606 -28.0504 2.13329 82 51 137
54.3594 -23.1275 2.06726 72 51 118
54.4307 -28.1223 2.11661 85 52 139
54.6341 -28.1913 2.11058 86 50 138
54.8413 -28.3241 2.09926 87 53 140
54.9082 -28.3966 2.09436 86 52 139
54.9695 -28.3954 2.09291 86 53 140
54.9734 -28.4541 2.08867 85 52 139
55.0441 -28.4611 2.08798 88 54 141
55.101 -28.4631 2.08783 88 54 142
55.1108 -28.5291 2.08295 89 53 143
55.1755 -28.5272 2.08294 89 53 143
55.2418 -28.598 2.07803 89 52 142
55.309 -28.5955 2.07668 91 55 144
55.3117 -28.6628 2.07227 90 54 144
55.3758 -28.6646 2.07201 93 57 147
55.4441 -28.7273 2.06694 90 54 144
55.5152 -28.7253 2.06633 90 54 145
55.5162 -28.794 2.0662 91 53 144
55.5833 -28.7919 2.06772 88 53 142
55.7367 -28.9049 2.06293 87 57 143
55.9192 -28.999 2.04429 91 56 146
55.9849 -29.0654 2.03985 91 56 146
56.0544 -29.1337 2.02782 90 54 144
56.1176 -29.1345 2.0285 90 55 145
56.1859 -29.1371 2.02745 91 56 146
56.1874 -29.2048 2.01315 90 55 146
56.3877 -29.202 2.01366 90 55 145
56.4613 -29.2664 2.0018 91 56 146
56.5293 -29.2673 2.00137 91 56 146
56.5828 -29.3129 1.99916 94 59 149
56.659 -29.3455 1.99794 92 58 148
56.7281 -29.3377 1.98614 94 59 149
56.7948 -29.4073 1.97225 93 60 151
56.8634 -29.4081 1.97228 94 61 152
56.93 -29.4711 1.95867 94 60 150
56.9971 -29.4765 1.95892 95 60 151
57.1324 -29.5366 1.94552 96 61 152
57.1998 -29.5381 1.94529 95 60 151
57.2691 -29.5997 1.93289 96 61 153
57.3352 -29.6012 1.9328 97 62 155
57.4702 -29.6753 1.93128 97 62 155
57.5364 -29.6753 1.91682 98 63 157
57.6046 -29.7374 1.90449 96 61 156
57.6736 -29.7415 1.90349 96 61 156
58.2133 -21.9793 1.87797 84 59 116
57.8091 -29.8086 1.8899 95 64 157
57.8755 -29.8105 1.88868 98 65 156
58.0763 -29.8763 1.87544 97 61 156
58.1434 -29.9326 1.86418 95 60 155
58.3536 -30.0195 1.86026 97 60 153
58.4146 -30.0165 1.84672 98 61 154
58.4158 -30.0789 1.83405 97 60 153
58.483 -30.0797 1.83365 97 60 153
58.6177 -30.1477 1.82042 96 61 153
58.6867 -30.1476 1.81994 96 61 153
58.7531 -30.1511 1.81914 96 61 153
58.8207 -30.2167 1.80579 96 61 153
58.8895 -30.2139 1.8059 96 61 153
58.9548 -30.2138 1.80606 96 60 153
58.821 -21.7778 1.83214 85 61 113
58.9553 -30.264 1.79639 96 61 153
59.0243 -21.8453 1.84762 85 60 117
59.1364 -30.3494 1.79416 96 62 153
59.1579 -30.3496 1.77815 96 63 154
59.2252 -30.3492 1.77815 94 63 153
59.2938 -30.4145 1.76508 95 63 153
59.3594 -30.4186 1.76398 95 62 153
59.429 -30.4866 1.75017 94 62 153
59.4953 -30.4866 1.75002 96 63 154
59.417 -21.61 1.79217 86 62 113
59.563 -30.4856 1.75054 96 62 153
59.6307 -30.5483 1.73731 97 62 154
59.6982 -30.5557 1.73617 97 62 154
59.9049 -30.6021 1.72744 100 66 154
59.9664 -30.6013 1.72828 100 67 156
58.3463 -24.8817 2.21833 89 65 125
50.252 -16.3053 0.00965444 59 91 82
50.9224 -16.781 0.033996 55 87 82
52.877 -36.6302 0.00756834 67 29 143
52.5436 -14.76 0.00861797 68 46 95
53.9647 -15.8389 0.00704496 84 54 108
54.3032 -37.9771 0.00880578 69 31 151
54.0974 -15.9753 0.00767698 83 54 110
54.433 -37.0978 0.00776294 67 32 148
55.0409 -36.0245 0.00795395 103 42 190
54.7056 -12.4017 0.0100852 76 47 101
56.7996 -35.9528 0.00737888 107 46 196
56.4575 -14.088 0.00853049 77 50 109
56.9971 -39.8662 0.00677634 80 38 163
56.929 -35.6164 0.0273853 108 49 192
56.5888 -14.2775 0.00986895 82 52 112
51.4625 -21.1741 1.62852 75 61 83
51.4458 -21.2912 1.65346 76 60 86
51.1892 -22.0283 1.78949 106 89 107
51.0599 -22.4631 1.86437 64 71 69
51.0517 -22.5215 1.87464 55 70 64
51.002 -22.6516 1.88773 52 70 63
50.9885 -22.7174 1.89551 50 68 60
50.9933 -22.7863 1.90607 53 70 67
50.9958 -22.8653 1.91724 50 67 66
51.0044 -22.9446 1.93162 55 55 65
50.988 -23.2627 1.96842 56 71 66
51.0523 -23.3329 1.98355 94 86 96
51.0499 -23.3966 1.99069 86 80 91
51.1301 -28.0584 2.03335 77 61 89
51.0508 -23.8054 2.03809 97 83 102
51.1963 -27.8616 2.05781 81 64 92
51.122 -23.9329 2.05586 77 61 86
51.1887 -27.5915 2.07943 79 61 91
51.123 -24.2146 2.07992 82 63 89
51.1202 -24.2762 2.08439 82 62 89
51.2522 -24.6163 2.12319 76 63 83
51.2758 -24.691 2.13263 77 63 85
51.2721 -24.7514 2.13425 78 63 85
51.3259 -24.8867 2.14593 77 64 84
51.326 -24.9486 2.15019 75 62 83
51.4624 -25.1539 2.17211 76 61 83
51.4652 -25.2194 2.17534 75 60 82
51.4699 -25.2916 2.17699 76 61 83
51.5311 -25.352 2.18773 77 61 87
51.5258 -25.4261 2.18806 79 63 89
51.5609 -25.4584 2.19756 78 63 88
51.6027 -25.5565 2.20194 79 63 89
51.7246 -25.7583 2.21527 78 60 90
51.73 -25.8304 2.21817 66 51 80
51.7991 -25.8958 2.22595 54 41 69
51.7975 -25.968 2.227 52 41 67
51.8671 -26.026 2.23424 68 53 82
51.8636 -26.0964 2.23131 77 62 89
51.9357 -26.1673 2.23953 78 62 89
51.9376 -26.2306 2.23566 78 62 91
52.1364 -26.3696 2.24114 79 63 94
52.2031 -26.4408 2.24018 91 66 113
52.2056 -26.4985 2.23938 89 62 111
52.2733 -26.5054 2.23806 85 50 122
52.3388 -26.5754 2.23602 77 47 125
52.401 -26.6381 2.23142 77 48 128
52.4757 -26.6447 2.23128 78 48 130
52.4732 -26.7065 2.22838 77 48 130
52.5373 -26.7075 2.22833 78 48 129
52.6759 -26.7754 2.22412 82 48 131
52.6731 -26.8358 2.22154 82 48 132
52.743 -26.8443 2.2204 81 48 130
52.7489 -26.9075 2.2157 81 48 129
52.7437 -24.6136 2.20489 74 50 120
52.8128 -26.9112 2.21759 82 49 130
52.9502 -27.0422 2.20881 77 48 129
53.0797 -27.1076 2.20438 84 50 134
53.1495 -27.1125 2.20334 83 50 135
53.1584 -27.1703 2.20151 83 51 134
53.2173 -27.1654 2.20134 82 50 131
53.2812 -27.2265 2.20125 81 49 130
53.3699 -27.2475 2.19932 81 50 130
53.3709 -27.2889 2.19808 80 48 132
53.4219 -27.3176 2.18636 80 48 133
53.4903 -27.3827 2.18054 81 47 131
53.5519 -27.3808 2.18127 82 48 132
53.6216 -27.4507 2.17509 81 47 132
53.6918 -27.5099 2.16934 83 49 134
53.7541 -27.5177 2.1692 84 51 136
53.8207 -27.5784 2.16349 84 52 137
54.1614 -27.7194 2.15172 82 53 137
54.2305 -27.787 2.146 81 51 135
54.3685 -27.8529 2.14034 82 49 137
54.4319 -27.9218 2.13455 81 51 137
54.4327 -23.734 2.13843 80 53 121
54.5082 -27.9773 2.1358 85 51 138
54.4944 -23.6069 2.13098 78 51 118
54.5683 -27.9937 2.13327 85 50 138
54.5676 -28.0488 2.1335 85 50 138
54.7003 -28.1223 2.11631 85 50 137
54.7706 -28.1253 2.11701 86 52 139
54.8373 -28.1921 2.11087 87 53 139
54.9024 -28.1909 2.11087 86 52 139
55.0355 -28.3195 2.09947 86 53 140
55.2386 -28.3959 2.09536 88 54 141
55.4395 -28.5288 2.08359 91 55 143
55.6475 -28.6656 2.07283 88 54 145
55.718 -28.7233 2.06684 88 53 145
55.7932 -28.787 2.06659 87 56 144
55.8444 -28.7951 2.06891 87 57 145
55.9207 -28.8494 2.06746 89 58 146
55.9735 -28.8824 2.0648 90 58 146
56.0503 -28.9299 2.05042 91 56 146
56.12 -28.9341 2.04934 91 56 148
56.1202 -28.9995 2.04405 89 54 145
56.1878 -29.0014 2.04397 91 55 146
56.2551 -29.0669 2.03888 90 55 145
56.3229 -29.1359 2.02759 89 54 144
56.3884 -29.1338 2.02782 90 55 145
56.5247 -29.2023 2.0146 91 56 146
56.6598 -29.2028 2.01367 91 56 146
56.6617 -29.2625 2.00272 91 56 146
56.7277 -29.2649 2.00252 92 57 147
56.7934 -29.267 2.00112 91 56 146
56.8735 -29.3215 2.0029 92 57 147
56.9372 -29.3468 1.99774 93 57 148
56.9979 -29.3361 1.98614 95 58 151
56.9963 -29.4058 1.97209 94 58 150
57.0647 -29.404 1.973 94 57 150
57.1322 -29.4107 1.97149 95 58 151
57.2005 -29.4698 1.95908 95 59 151
57.2663 -29.4727 1.95872 96 60 152
57.3347 -29.4733 1.95834 95 59 149
57.3367 -29.5393 1.94442 96 61 152
57.4026 -29.5429 1.94374 96 61 152
50.1855 -31.9673 1.2014 45 78 100
57.5358 -29.5959 1.93324 97 62 154
57.6017 -29.5997 1.93328 97 62 155
50.036 -31.2852 1.46127 49 82 101
57.6722 -29.5986 1.93286 96 63 153
50.113 -21.9828 1.64163 74 86 118
57.7293 -29.6608 1.93357 96 61 154
57.8073 -29.6759 1.91667 97 62 154
57.876 -29.7438 1.90283 99 64 157
57.9427 -29.7445 1.90273 99 64 156
58.0107 -29.7456 1.9022 98 63 156
58.1475 -29.8126 1.88912 98 63 156
58.2123 -29.8154 1.88844 97 62 154
58.2131 -29.8777 1.87635 95 60 153
58.2812 -29.8775 1.87599 96 61 153
58.3477 -29.8801 1.87501 95 63 153
58.4819 -29.9312 1.86462 96 63 154
58.5559 -29.9888 1.86659 96 61 153
58.687 -30.012 1.84748 97 62 154
58.6843 -30.08 1.8338 97 62 154
58.8197 -30.0831 1.83321 96 61 153
58.8868 -30.1443 1.82036 96 61 153
58.8874 -21.845 1.84761 86 61 116
59.0209 -30.1497 1.81941 96 60 153
59.1591 -30.2175 1.80519 97 64 155
59.2226 -30.2175 1.80512 97 64 155
59.2285 -30.2654 1.79658 95 65 155
59.2949 -30.2687 1.79592 95 65 155
59.3561 -30.2699 1.79562 97 67 157
59.2989 -21.5996 1.7969 86 62 114
59.4187 -30.3311 1.7967 94 64 154
59.3602 -21.5989 1.79372 86 62 114
59.4634 -30.3488 1.79308 95 65 155
59.3607 -21.5755 1.78501 87 62 114
59.5633 -30.3488 1.77828 95 64 154
59.5742 -21.6094 1.79196 87 65 114
59.7667 -30.4846 1.75118 96 63 154
59.6972 -21.3739 1.73856 90 62 113
59.8336 -30.4827 1.75078 98 63 154
59.8992 -30.5541 1.73615 100 64 153
59.9643 -30.5537 1.73667 102 67 157
60.0023 -30.5625 1.74941 98 61 155
54.1576 -15.4314 0.00875784 72 48 106
54.4959 -37.8437 0.00866035 74 33 151
51.5948 -21.2396 1.66042 78 63 84
51.5958 -21.3642 1.68909 79 65 90
51.5315 -21.4474 1.69967 81 66 88
51.5748 -30.1115 1.79154 74 59 86
51.4777 -21.5888 1.72616 83 67 88
51.3345 -21.9877 1.79952 83 64 89
51.3262 -22.0498 1.81181 80 64 90
51.2606 -22.1859 1.83366 80 64 89
51.2539 -22.2586 1.84751 79 64 90
51.1914 -22.5899 1.90278 79 63 87
51.1913 -22.6506 1.90918 79 65 87
51.1916 -22.7167 1.91963 81 66 89
51.1964 -22.7988 1.93216 81 66 89
51.1888 -22.8638 1.94013 81 65 90
51.1293 -22.9976 1.95254 78 65 85
51.1912 -23.1943 1.98299 83 66 87
51.1817 -23.2718 1.99114 81 66 88
51.1967 -23.3335 2.00053 80 65 89
51.2313 -27.8072 2.05871 75 59 88
51.1872 -23.3949 2.00685 80 65 89
51.191 -23.4687 2.01631 81 64 90
51.2611 -27.9255 2.05714 80 60 91
51.1953 -23.5376 2.02515 81 64 91
51.2576 -27.872 2.0612 80 61 92
51.189 -23.6023 2.03113 79 62 89
51.2526 -28.0438 2.04943 78 62 89
51.1946 -23.6651 2.03988 81 64 91
51.2523 -27.9917 2.0514 78 60 88
51.1912 -23.7379 2.04812 87 70 97
51.255 -23.9327 2.07112 81 61 89
51.2674 -24.0064 2.07876 80 62 90
51.2571 -24.065 2.08348 81 64 90
51.2608 -24.1398 2.08954 82 66 92
51.3228 -24.2112 2.10289 85 67 94
51.3231 -24.2782 2.10833 88 66 94
51.3243 -24.3394 2.11358 83 63 88
51.3304 -24.4029 2.11979 80 62 86
51.3237 -24.4781 2.12371 78 64 86
51.395 -24.5549 2.13437 78 65 86
51.468 -24.8105 2.15842 78 65 85
51.4703 -24.8748 2.16215 78 65 85
51.5232 -24.9582 2.17205 75 62 83
51.5282 -25.0125 2.17633 75 60 84
51.6665 -25.2917 2.20159 76 62 87
51.6706 -25.4235 2.20467 78 62 88
51.7385 -25.4867 2.21441 78 63 87
51.7359 -25.5541 2.21621 79 63 86
51.7917 -25.6254 2.22138 78 62 88
52.0076 -25.9687 2.24725 56 43 69
52.0088 -26.0278 2.24824 70 56 82
52.0677 -26.096 2.24667 78 62 90
52.0707 -26.1684 2.24587 79 62 91
52.1383 -26.1628 2.24512 79 62 94
52.2666 -26.2965 2.24332 76 49 114
52.3418 -26.3634 2.24194 77 51 125
52.4063 -26.4336 2.2395 84 51 130
52.5424 -26.5036 2.23807 79 49 127
52.6783 -26.6395 2.2315 80 47 128
52.7504 -26.7085 2.22856 82 48 131
52.8804 -26.7721 2.22446 80 48 131
52.946 -26.7774 2.22373 81 47 131
52.9477 -26.8366 2.22134 82 48 131
53.0866 -26.9064 2.21749 84 51 132
53.1514 -26.9736 2.2134 83 50 132
53.2123 -26.9792 2.21216 81 49 132
53.2241 -27.0459 2.20897 78 49 130
53.2841 -27.0409 2.20926 78 49 129
53.2819 -27.1063 2.2041 80 51 130
53.3579 -27.1099 2.2037 78 48 130
53.4252 -27.1757 2.20139 82 49 133
53.6208 -27.2412 2.19881 82 50 135
53.6926 -27.3125 2.18677 79 50 132
53.8245 -27.383 2.18092 83 51 136
53.9555 -27.4467 2.17488 83 49 135
54.031 -27.5155 2.16978 84 50 136
54.0983 -27.5826 2.16286 84 49 136
54.1683 -27.5858 2.16321 83 49 135
54.232 -27.6463 2.15823 84 52 137
54.2981 -27.6514 2.1573 83 51 137
54.3655 -27.7152 2.1518 83 50 137
54.4332 -27.7848 2.14681 83 48 135
54.5017 -23.7365 2.13752 80 53 122
54.5715 -27.8527 2.14031 85 50 137
54.6311 -27.9185 2.13596 86 50 138
54.8395 -23.805 2.14322 80 55 120
54.8909 -28.0427 2.1341 86 52 138
54.971 -28.122 2.1167 87 53 139
55.0382 -28.1231 2.11678 89 55 140
55.0346 -23.6494 2.12787 81 54 121
55.1083 -28.1852 2.11194 88 54 140
55.1769 -28.1934 2.1104 90 56 142
55.3128 -28.2589 2.10557 90 54 142
55.3089 -28.3262 2.09933 91 55 143
55.3819 -28.3246 2.0995 90 55 142
55.5821 -28.4613 2.08801 86 55 143
55.6494 -28.5286 2.08205 87 54 141
55.8472 -28.6636 2.07204 88 53 141
56.0514 -28.7269 2.06635 91 59 143
56.1201 -28.7928 2.06609 92 59 145
56.1945 -28.8488 2.06759 93 58 147
56.2476 -28.8819 2.06492 93 58 148
56.3213 -28.9333 2.04959 91 55 145
56.3863 -28.9972 2.04443 91 56 145
56.4529 -29.0019 2.0441 91 56 145
56.521 -29.0649 2.03953 90 55 145
56.5891 -29.0725 2.03823 89 54 144
56.5931 -29.1343 2.02817 90 55 145
56.6609 -29.133 2.02823 90 55 145
56.7284 -29.1369 2.02738 91 56 146
56.7964 -29.1997 2.01463 91 56 146
56.8641 -29.2023 2.01371 90 57 146
56.9333 -29.2643 2.00155 92 57 147
56.9983 -29.2629 2.00184 93 58 148
57.1323 -29.3143 2.00446 92 57 147
57.267 -29.4036 1.9726 96 59 149
57.3348 -29.4051 1.97245 94 59 148
57.4705 -29.4694 1.95939 94 61 149
57.539 -29.4719 1.95845 94 61 149
57.605 -29.4731 1.95803 92 62 150
57.6715 -29.5395 1.9446 96 63 151
57.7382 -29.5409 1.9456 95 63 151
58.2104 -22.5773 1.99165 87 63 116
57.8033 -29.6008 1.93296 97 63 153
57.9439 -29.5999 1.93258 97 60 153
58.0153 -29.6635 1.93311 98 62 154
58.0588 -29.6807 1.9296 97 62 154
58.1439 -29.743 1.90242 98 63 155
58.2118 -29.7439 1.90274 98 63 154
58.2808 -29.7415 1.90316 98 64 154
58.3472 -29.8092 1.88927 96 64 153
58.414 -29.8116 1.88854 93 65 152
58.4822 -29.8109 1.88863 95 67 154
58.4829 -29.8775 1.8752 95 66 154
58.5505 -29.8798 1.875 94 64 153
58.6172 -29.8766 1.87519 96 66 155
58.6861 -29.9318 1.86497 96 64 155
58.7525 -29.9319 1.86429 95 63 154
58.8204 -29.9318 1.86435 94 63 153
58.8479 -29.9928 1.86585 95 61 152
58.8921 -30.0103 1.86228 95 60 151
58.8863 -21.7778 1.83238 86 62 114
59.023 -30.0803 1.83342 95 59 151
59.0227 -21.644 1.80126 85 61 112
59.1583 -30.1493 1.81916 96 61 153
59.0905 -21.6438 1.80105 85 61 111
59.2242 -30.1479 1.81971 96 63 154
59.3605 -30.216 1.80582 97 63 155
59.4934 -30.2638 1.79618 94 62 153
59.5596 -30.2647 1.7973 96 61 151
59.6217 -21.5942 1.79563 87 65 114
59.7393 -30.3455 1.79383 95 64 154
59.6969 -21.5061 1.76939 87 65 115
59.7653 -21.3226 1.72803 90 61 113
59.8995 -30.4173 1.76435 97 62 154
60.0099 -30.4525 1.77197 92 57 155
59.6301 -8.41292 0.00548984 68 45 91
59.6982 -12.8026 0.00677102 72 51 101
53.1458 -14.2823 0.00853211 70 46 98
53.481 -36.425 0.00846031 78 35 154
53.6254 -14.9628 0.0104252 79 51 109
55.7841 -37.7082 0.00808627 81 40 158
55.3727 -12.3257 0.00861191 77 53 105
55.8486 -39.126 0.00705176 83 37 161
55.4411 -12.3942 0.00914965 76 50 102
56.6004 -38.7886 0.00774005 81 40 163
56.1857 -13.1389 0.00912725 73 49 105
51.874 -20.8975 1.61701 77 62 87
51.6015 -21.6421 1.75379 84 66 92
51.463 -22.1152 1.84458 78 64 89
51.3954 -22.1817 1.8494 80 65 90
51.3958 -22.3183 1.87671 82 62 89
51.3353 -22.3825 1.8824 80 64 90
51.3183 -22.6442 1.92349 80 65 88
51.3255 -22.7129 1.93517 80 65 88
51.3272 -22.7931 1.94653 82 66 90
51.3326 -22.8584 1.95737 80 64 88
51.3234 -22.9215 1.96451 80 65 88
51.3243 -22.9875 1.974 81 66 89
51.3207 -23.0598 1.98248 80 65 88
51.3269 -23.4629 2.03151 81 66 89
51.33 -23.535 2.03978 83 67 92
51.3365 -23.5961 2.04796 77 62 87
51.3881 -28.0619 2.05928 74 60 86
51.3247 -23.6623 2.05433 75 61 87
51.33 -23.8037 2.06931 76 60 87
51.5255 -28.429 2.06471 79 60 89
51.457 -24.2036 2.11777 81 62 89
51.4667 -24.2776 2.12405 79 62 88
51.4676 -24.36 2.13368 78 62 88
51.4661 -24.4182 2.13628 77 63 87
51.5981 -24.6789 2.16508 78 63 86
51.5947 -24.7512 2.16997 77 63 85
51.5923 -24.8168 2.17267 78 64 85
51.6642 -24.8816 2.18435 77 62 85
51.6681 -24.9488 2.18845 75 60 85
51.6624 -25.0132 2.19075 74 60 85
51.6868 -25.0424 2.19766 75 61 86
51.6935 -25.0931 2.20061 75 61 86
51.7353 -25.0795 2.20201 76 62 87
51.7299 -25.1559 2.2024 75 61 86
51.7354 -25.223 2.20597 75 61 86
51.8657 -25.4953 2.22913 78 62 89
51.9352 -25.624 2.23832 80 64 89
51.9419 -25.6892 2.23737 78 64 90
52.0072 -25.6924 2.24514 78 63 89
52.0018 -25.7608 2.24571 72 58 83
52.0168 -25.8258 2.2462 62 49 74
52.0646 -25.8293 2.24739 61 46 74
52.0715 -25.8947 2.24657 54 41 68
52.1362 -25.9608 2.24779 57 44 77
52.2719 -26.0294 2.2488 75 49 118
52.3377 -26.1007 2.24615 77 50 124
52.3449 -26.1655 2.24514 76 47 122
52.4061 -26.1669 2.24542 75 47 124
52.4738 -26.2356 2.24384 76 48 125
52.6113 -26.3691 2.2412 75 48 123
52.679 -26.3701 2.2413 74 47 122
52.6781 -26.4377 2.23864 78 48 125
52.7446 -26.4366 2.23928 78 49 126
52.7471 -26.5031 2.23801 79 47 127
52.8116 -26.5049 2.23892 79 48 128
52.8203 -26.5738 2.23471 79 49 130
52.8777 -26.5717 2.23551 81 49 131
53.0228 -26.7053 2.22798 79 50 132
53.1486 -26.7745 2.22357 79 50 132
53.2809 -26.838 2.2209 82 50 133
53.3481 -26.9089 2.21645 78 49 130
53.4184 -26.9753 2.2124 81 49 130
53.4879 -26.9749 2.2123 83 50 132
53.49 -27.041 2.20898 83 49 133
53.5565 -27.046 2.20928 83 49 132
53.6256 -27.116 2.20327 83 48 133
53.6839 -27.1066 2.20399 83 49 134
53.7511 -27.1772 2.20254 84 51 136
53.8288 -27.2278 2.2036 85 52 137
53.933 -27.2913 2.1982 85 50 135
54.0314 -27.3742 2.18038 84 50 133
54.2298 -27.4487 2.17435 84 51 132
54.2927 -27.514 2.16886 81 52 133
54.3631 -27.5179 2.16934 83 53 135
54.3682 -27.585 2.16236 82 50 135
54.3619 -23.6749 2.13336 79 52 119
54.4281 -27.5818 2.16325 82 52 136
54.5069 -27.6504 2.15713 82 53 137
54.566 -27.6499 2.15796 82 53 137
54.569 -27.7131 2.15173 84 55 139
54.6332 -27.722 2.15134 83 54 138
54.706 -27.7824 2.14535 85 53 138
54.7704 -27.7875 2.14654 86 52 138
54.8325 -27.8507 2.13981 86 52 139
54.9017 -27.8569 2.13932 86 52 139
54.9725 -27.9162 2.13549 86 52 138
55.3803 -28.1904 2.1119 89 55 141
55.4392 -28.1916 2.11009 90 56 142
55.5786 -28.2608 2.10415 88 55 142
55.5834 -28.3231 2.10029 89 55 142
55.6457 -28.326 2.09898 90 56 143
55.7163 -28.3941 2.09336 90 55 144
55.7796 -28.3913 2.09307 91 55 144
55.783 -28.4573 2.08925 90 57 144
55.8527 -28.4602 2.08917 90 57 144
55.9861 -28.5303 2.08261 89 55 142
56.0537 -28.5959 2.07766 94 58 145
56.1187 -28.5953 2.07647 95 59 146
56.1226 -28.6638 2.07144 93 58 144
56.1883 -28.6605 2.07136 91 56 142
56.2544 -28.724 2.06697 89 54 140
56.4533 -28.8642 2.06664 93 57 146
56.599 -28.9339 2.04923 93 57 145
56.6619 -28.9359 2.04872 93 58 145
56.731 -28.9981 2.04429 93 59 146
56.7911 -29.0698 2.03855 92 57 147
56.929 -29.1376 2.02796 91 57 145
56.9979 -29.1351 2.02788 91 57 144
57.0653 -29.2027 2.0135 92 58 145
57.1329 -29.2052 2.01357 93 58 147
57.2003 -29.2012 2.01382 92 57 147
57.2675 -29.2633 2.00166 91 57 147
57.3315 -29.2661 2.00229 92 58 147
57.4145 -29.3154 2.00429 92 58 147
57.4807 -29.3461 2.00288 93 59 148
57.5383 -29.3413 1.98534 93 59 148
57.6061 -29.4045 1.9725 92 59 148
49.9825 -26.1734 2.02687 55 85 83
57.6758 -29.4086 1.97157 93 59 148
57.7395 -29.4031 1.97244 93 60 149
57.7413 -29.4719 1.95829 93 62 150
57.8078 -29.4718 1.95839 95 62 152
57.8736 -29.4728 1.95851 96 62 153
58.0106 -29.5424 1.944 98 63 155
58.078 -29.5989 1.93271 98 61 154
58.1449 -29.6023 1.93194 97 63 154
57.8088 -22.5743 1.99143 82 61 118
58.2135 -29.5999 1.93272 96 63 153
58.3476 -29.6834 1.92911 95 64 153
58.4819 -29.7422 1.90363 98 66 155
58.5497 -29.7429 1.90259 98 65 154
58.6837 -29.8113 1.88853 98 65 156
58.7519 -29.8108 1.88865 97 65 156
58.8215 -29.8764 1.8755 94 65 155
58.8883 -29.8797 1.87479 94 64 156
58.9567 -29.9309 1.86501 93 63 153
59.0255 -29.9337 1.86538 92 62 151
59.0877 -29.9337 1.8636 92 64 153
59.1153 -29.9941 1.87318 94 65 152
59.1645 -30.0057 1.86331 94 65 152
59.2265 -30.0123 1.84758 93 65 152
59.2914 -30.0789 1.83421 95 62 151
59.3598 -30.0785 1.83429 96 62 152
59.4287 -30.0784 1.83373 96 63 152
59.3607 -21.6438 1.80097 85 62 114
59.4949 -30.1448 1.82017 97 61 153
59.5624 -30.1447 1.82005 98 61 153
59.4953 -21.8913 1.85718 132 105 159
59.6321 -30.2121 1.80641 99 61 152
59.5632 -21.7084 1.8161 90 64 113
59.6976 -30.2182 1.80481 98 62 153
59.6305 -21.7093 1.81589 91 65 116
59.764 -30.2193 1.80498 98 61 152
59.8322 -30.2671 1.79554 97 60 153
59.9009 -30.2668 1.79587 97 61 152
59.8325 -21.8437 1.84676 90 66 118
59.9723 -30.3243 1.79824 99 63 157
59.8992 -21.8449 1.84713 90 64 117
60.0175 -30.3422 1.7946 90 56 152
53.5502 -36.4919 0.00716527 76 36 153
53.2198 -14.0838 0.00862822 69 47 99
53.8337 -35.8868 0.0106015 100 39 187
53.4913 -14.5578 0.00881002 81 51 111
54.1642 -14.9663 0.0085114 74 49 105
54.4948 -36.4285 0.00762502 80 36 156
55.107 -15.836 0.0087865 84 55 109
55.4431 -37.302 0.00680829 78 36 158
56.325 -38.1118 0.00745919 78 40 157
55.9884 -12.6576 0.00948646 75 51 103
52.0076 -21.0405 1.66479 77 64 92
51.9343 -21.1685 1.68756 77 62 87
52.0047 -30.3049 1.78815 74 58 87
51.8683 -21.4404 1.74129 77 63 89
51.9321 -30.2925 1.78585 73 57 85
51.8023 -21.5089 1.74933 78 62 90
51.5922 -22.1278 1.86394 77 63 88
51.5302 -22.2568 1.8813 78 63 89
51.5285 -22.3153 1.89276 79 64 88
51.526 -22.3871 1.90673 79 65 87
51.4621 -22.511 1.92292 84 63 90
51.4658 -22.5946 1.93465 82 65 90
51.4617 -22.9165 1.98091 81 64 88
51.457 -22.9861 1.98872 80 65 88
51.4664 -23.0579 1.9991 80 65 88
51.4612 -23.13 2.00746 80 67 88
51.4664 -23.1904 2.01503 80 66 88
51.4582 -23.2642 2.02269 82 66 90
51.4627 -23.3324 2.03133 80 65 88
51.4646 -23.5344 2.05618 78 63 89
51.6006 -27.9174 2.095 78 58 88
51.5313 -23.8003 2.09169 75 59 86
51.6057 -28.2515 2.06945 81 62 89
51.5355 -24.0032 2.10945 76 61 85
51.5963 -28.1919 2.07075 76 61 87
51.5281 -24.0796 2.11494 76 60 85
51.5968 -24.34 2.14524 78 62 89
51.6037 -24.4064 2.15112 79 62 88
51.6654 -24.5414 2.16552 78 65 85
51.6709 -24.6131 2.16974 79 66 85
51.7947 -24.8747 2.19997 75 60 86
51.8005 -25.0174 2.20687 77 62 88
51.8729 -25.2179 2.22097 78 61 89
51.9326 -25.2287 2.22709 78 62 88
51.9324 -25.2924 2.23005 78 62 88
52.1394 -25.6936 2.24432 76 60 91
52.212 -25.6926 2.24601 79 54 106
52.2695 -25.7554 2.24628 75 47 112
52.2777 -25.8293 2.24711 70 44 111
52.3419 -25.8244 2.24634 68 42 116
52.3454 -25.8977 2.24683 65 42 116
52.4138 -25.8941 2.24815 67 42 119
52.4733 -25.9624 2.24819 67 43 119
52.4778 -26.0322 2.24794 74 47 124
52.5427 -26.0262 2.24822 74 47 124
52.6123 -26.1679 2.24597 77 49 124
52.7446 -26.2273 2.24438 77 50 124
52.8108 -26.2985 2.24239 74 48 123
53.0196 -26.4325 2.2389 76 48 127
53.0184 -26.5015 2.23842 79 48 130
53.0812 -26.5009 2.23835 77 49 130
53.0841 -26.5746 2.23507 79 49 131
53.1491 -26.5709 2.23536 79 50 130
53.2178 -26.6379 2.23138 81 52 132
53.2852 -26.6407 2.2311 80 51 132
53.2896 -26.7091 2.22754 79 50 131
53.352 -26.7042 2.2286 79 49 131
53.4233 -26.7737 2.22428 80 50 131
53.4861 -26.8392 2.22108 79 51 132
53.7607 -26.9774 2.2116 81 52 133
53.7585 -27.0425 2.20852 81 50 133
53.8317 -27.0446 2.20947 80 50 134
53.8946 -27.1063 2.20413 81 50 135
53.9636 -27.1117 2.20292 80 50 134
53.9538 -27.1612 2.20122 82 50 135
54.0298 -27.1716 2.20218 83 51 136
54.0969 -27.1707 2.19998 82 52 135
54.0887 -27.2235 2.20037 83 50 134
54.1615 -27.2631 2.20067 84 50 134
54.2139 -27.295 2.19795 85 51 136
54.2257 -27.311 2.18653 85 51 136
54.2946 -27.3138 2.18553 85 51 137
54.2941 -27.3822 2.17985 84 51 133
54.3687 -23.8022 2.14399 80 53 120
54.4364 -27.4485 2.17518 86 52 136
54.4982 -27.513 2.16862 86 53 138
54.7748 -27.5824 2.16262 85 51 137
54.9056 -27.7155 2.15173 84 51 138
54.977 -27.7195 2.15087 88 54 140
54.9707 -27.7859 2.14529 88 52 140
55.0388 -27.7857 2.14625 88 52 140
55.1069 -27.8533 2.14016 88 53 140
55.1787 -27.9141 2.13392 86 53 140
55.2443 -27.9198 2.13538 87 53 140
55.3802 -27.9822 2.13265 91 57 143
55.3783 -23.8034 2.14342 82 56 121
55.4462 -28.0444 2.13408 90 56 142
55.5818 -28.1218 2.11682 90 56 142
55.6488 -28.1242 2.11595 91 57 144
55.6474 -28.1902 2.11073 89 55 143
55.714 -28.1949 2.11113 90 56 144
55.7802 -28.2572 2.10531 89 55 142
55.8543 -28.3242 2.10096 92 56 144
56.0527 -28.3963 2.09285 90 56 143
56.1202 -28.463 2.08835 91 58 142
56.1867 -28.4584 2.08801 92 58 143
56.1916 -28.5269 2.08192 92 58 142
56.251 -28.5291 2.08261 93 57 144
56.3219 -28.598 2.07763 93 56 143
56.3861 -28.594 2.07661 91 55 142
56.3957 -28.6617 2.07125 93 57 145
56.4609 -28.6647 2.07128 93 57 145
56.5208 -23.599 2.12245 85 59 121
56.5961 -28.7274 2.06607 93 58 146
56.5306 -23.5324 2.1138 84 58 121
56.61 -28.7863 2.06591 92 56 144
56.6746 -28.7944 2.06785 91 56 143
56.709 -28.7929 2.06571 91 57 143
56.731 -28.8363 2.06874 91 56 142
56.7821 -28.8606 2.06694 92 58 145
56.8659 -28.931 2.04918 92 58 145
56.9314 -28.9315 2.04915 90 56 143
56.9954 -29.0017 2.04454 90 57 144
57.0697 -29.0652 2.03871 92 58 145
57.1333 -29.1352 2.02734 92 58 146
57.1998 -29.1332 2.02884 92 58 147
57.4024 -29.2033 2.01374 96 60 148
57.4711 -29.2019 2.0136 94 58 146
57.5342 -29.2665 2.00116 94 59 147
57.6637 -29.3065 2.00054 93 60 146
57.7424 -29.3336 2.00065 92 60 147
57.8144 -29.3328 1.99515 92 61 149
57.8747 -29.4058 1.97215 93 60 149
57.9427 -29.4062 1.97172 95 61 150
58.0102 -29.4059 1.97169 95 60 150
58.0115 -29.4737 1.95837 96 61 152
58.0757 -29.4726 1.95794 95 61 151
58.1447 -29.4722 1.95867 96 63 152
57.8083 -22.2542 1.93457 86 61 119
58.2126 -29.5372 1.94519 95 63 154
57.7412 -22.3836 1.96024 83 61 118
58.2804 -29.5406 1.94411 94 64 153
58.3472 -29.5417 1.94382 93 64 151
58.3497 -29.5959 1.93322 92 64 151
58.4815 -29.6013 1.93238 96 65 153
58.5507 -29.6515 1.93572 98 64 153
58.6153 -29.6735 1.93616 97 64 153
58.8216 -29.7448 1.90196 96 64 153
58.8867 -29.7427 1.90306 96 64 153
58.8875 -29.8087 1.88947 96 64 154
59.0231 -29.8101 1.88898 98 64 155
59.1575 -29.8799 1.8747 97 63 155
59.227 -29.9334 1.86414 95 65 155
59.3601 -29.9299 1.8642 99 67 158
59.484 -30.0186 1.86074 97 63 153
59.5617 -30.0111 1.84726 96 61 152
59.5622 -30.077 1.83394 97 62 154
59.6303 -30.0784 1.8339 97 62 152
59.699 -30.0797 1.83361 97 62 151
59.7656 -30.1507 1.8186 97 63 150
59.7054 -21.5985 1.79601 86 63 114
59.8329 -30.1497 1.81926 96 62 151
59.9011 -30.151 1.81861 97 62 153
57.606 -21.2377 1.70808 86 60 118
50.5803 -15.296 0.0086525 62 94 81
51.1248 -16.0369 0.00914205 61 95 81
53.2148 -13.9478 0.00844319 69 45 98
55.0367 -37.6413 0.00845449 77 37 156
54.7038 -15.0918 0.0091162 74 48 106
55.3058 -36.8294 0.00645454 78 39 156
54.9704 -15.4965 0.008868 74 49 107
56.4644 -38.2475 0.00713205 78 39 156
56.0566 -12.396 0.00898321 75 51 103
56.5958 -37.8433 0.00753015 79 38 157
56.1901 -12.4621 0.00928252 73 48 100
57.4025 -35.8191 0.0117017 109 50 190
57.4669 -40.0699 0.0069385 78 38 161
57.0666 -13.3429 0.0100901 74 49 104
58.1464 -36.09 0.00563309 107 50 186
57.738 -9.96378 0.0061888 71 44 97
58.2141 -37.5729 0.00605316 77 44 154
57.8057 -14.0794 0.00801814 74 51 107
52.0032 -21.316 1.7292 77 63 89
52.0056 -30.0187 1.84738 72 58 85
51.869 -21.7067 1.80351 76 61 88
51.8649 -21.8454 1.8347 78 62 88
51.7977 -21.9161 1.84163 78 63 86
51.6648 -22.456 1.93694 77 62 89
51.5927 -22.5198 1.94002 79 64 89
51.6015 -22.5904 1.95041 78 64 90
51.5965 -22.6623 1.95989 79 65 90
51.6018 -22.7187 1.96826 80 65 89
51.595 -22.7858 1.97778 80 65 88
51.6014 -22.8489 1.98771 80 65 88
51.6042 -23.1272 2.02315 79 66 87
51.5975 -23.2007 2.03175 80 66 88
51.5986 -23.268 2.03913 81 64 89
51.6544 -27.6518 2.12313 74 58 87
51.6288 -23.4044 2.06248 78 59 87
51.6675 -23.7376 2.10306 75 61 86
51.6698 -23.8672 2.11356 75 61 87
51.7326 -24.0725 2.1382 76 62 88
51.7305 -24.1473 2.1441 76 62 88
51.7958 -24.4154 2.17279 77 63 88
51.7987 -24.4808 2.1766 79 64 86
51.8122 -24.5493 2.18221 78 63 86
51.8421 -28.6079 2.05969 79 59 86
51.8602 -24.6078 2.19072 77 63 89
51.8722 -24.6862 2.19943 79 64 89
51.8797 -24.7592 2.20198 78 63 88
51.8728 -24.8066 2.20369 77 63 89
52.0056 -25.0195 2.2275 76 61 87
52.0039 -25.089 2.23072 75 63 87
52.074 -25.162 2.23306 76 60 87
52.0689 -25.2208 2.23502 77 60 87
52.2052 -25.4181 2.24151 78 56 102
52.2724 -25.4254 2.24037 79 50 115
52.2675 -25.494 2.24307 76 49 114
52.3372 -25.491 2.24281 75 48 119
52.5379 -25.7617 2.24553 72 44 122
52.6048 -25.8264 2.24756 68 40 120
52.6149 -25.8931 2.24668 65 41 118
52.6783 -25.8993 2.24775 67 42 118
52.6815 -25.9627 2.24731 70 41 118
52.7429 -25.9657 2.24812 71 43 118
52.7516 -26.0323 2.24803 74 48 122
52.8149 -26.0284 2.24807 73 47 121
52.8751 -26.0982 2.24668 78 50 125
52.8849 -26.1645 2.24568 80 50 125
52.9448 -26.1663 2.24437 82 51 126
53.2164 -26.3704 2.2412 77 50 127
53.279 -26.4362 2.23878 78 49 126
53.4251 -26.5752 2.23485 80 50 130
53.4857 -26.5708 2.23615 81 48 130
53.4939 -26.6439 2.23111 81 50 131
53.5495 -26.6354 2.23143 79 50 132
53.5599 -26.7045 2.22793 78 51 132
53.619 -26.7049 2.22797 78 51 132
53.756 -26.8362 2.22096 80 51 134
53.8234 -26.8423 2.21917 80 51 135
53.8238 -26.902 2.21604 80 51 134
53.8932 -26.9081 2.21617 79 50 133
53.9584 -26.9745 2.21271 79 50 133
54.0268 -27.0381 2.20824 81 52 135
54.2267 -27.1131 2.20285 81 51 134
54.2934 -27.167 2.20225 84 51 135
54.374 -27.224 2.20407 85 50 136
54.4444 -27.2666 2.20044 85 53 137
54.5052 -27.2913 2.19815 83 54 138
54.5636 -27.3115 2.1859 83 55 138
54.633 -27.3801 2.1802 83 54 138
54.7017 -27.3818 2.18054 84 52 136
54.7042 -27.447 2.17524 83 52 136
54.7672 -27.4496 2.17437 84 51 136
54.838 -27.5116 2.169 84 51 135
54.9053 -27.5181 2.16839 85 52 136
54.9041 -27.5851 2.16333 89 51 135
54.9694 -27.584 2.16266 89 53 137
55.0455 -27.6478 2.1573 87 53 137
55.022 -23.6132 2.13032 82 55 121
55.1047 -27.7168 2.15194 88 54 140
55.2421 -27.7839 2.14523 87 53 139
55.3061 -23.6801 2.13362 81 53 121
55.3771 -27.7877 2.14553 88 54 140
55.4439 -27.8533 2.13923 89 55 140
55.5796 -27.9151 2.1345 89 57 140
55.6014 -23.5974 2.13113 79 55 119
55.6542 -27.9818 2.1347 87 55 138
55.6503 -23.6816 2.13293 80 55 120
55.7204 -28.0417 2.1344 89 55 140
55.7662 -28.0664 2.13228 90 56 142
55.8507 -28.12 2.11705 92 58 144
55.9868 -28.1913 2.11105 91 57 143
56.052 -28.256 2.10484 93 59 145
56.1206 -28.3254 2.0985 91 58 144
56.192 -28.3262 2.09981 90 56 141
56.2511 -28.3244 2.09874 90 56 140
56.256 -28.3942 2.09299 90 56 142
56.323 -28.3961 2.09318 90 56 141
56.3927 -28.4627 2.08834 91 57 141
56.4584 -28.529 2.08175 93 57 144
56.5937 -28.5297 2.0816 92 55 142
56.6598 -28.5982 2.07732 90 56 143
56.7259 -28.6622 2.07148 92 60 145
56.7932 -28.6644 2.07097 93 59 145
56.7956 -28.7252 2.06587 94 60 147
56.8654 -28.7257 2.06721 92 58 144
56.922 -28.7886 2.06851 92 56 143
56.9913 -28.7932 2.06531 91 56 143
57.0294 -28.8468 2.06798 91 56 143
57.074 -28.8743 2.06591 92 56 143
57.1537 -28.9241 2.06906 92 56 143
50.4509 -31.4925 1.39958 53 86 95
57.2647 -28.9996 2.04392 93 59 146
57.3384 -29.0695 2.03776 92 58 145
57.4008 -29.0684 2.03842 95 61 147
57.4702 -29.1347 2.02743 94 60 146
57.54 -29.1349 2.02757 93 59 145
57.6034 -29.1999 2.01392 92 59 145
57.6745 -29.2024 2.01348 92 60 145
57.8092 -29.2629 2.00135 93 64 148
57.8766 -29.2658 2.00119 94 62 147
58.0018 -29.3266 2.00284 95 61 148
58.1443 -29.3388 1.98537 95 61 147
58.1459 -29.4064 1.97151 95 61 150
57.8065 -22.3857 1.96074 80 60 117
58.3472 -29.4743 1.95858 93 63 151
58.4148 -29.4728 1.95852 96 63 152
58.484 -29.4746 1.95764 97 63 153
58.4829 -29.5425 1.94368 97 65 153
58.549 -29.5394 1.94413 99 64 154
58.6867 -29.5955 1.93325 99 64 154
58.7536 -29.6 1.9328 99 64 154
58.8881 -29.6715 1.93171 98 65 154
58.9552 -29.6786 1.91559 98 66 155
59.0225 -29.7386 1.90364 98 65 154
59.0899 -29.7428 1.90249 98 65 154
59.1572 -29.7433 1.90218 98 65 154
59.1578 -29.8104 1.88833 99 64 155
59.2245 -29.8117 1.8886 99 65 155
59.2925 -29.8141 1.88819 99 65 155
59.3604 -29.8775 1.87493 98 65 155
59.4284 -29.8757 1.87544 98 65 156
59.4942 -29.8749 1.87533 100 67 156
59.6952 -29.9323 1.86459 99 64 156
59.7161 -29.9962 1.86538 97 62 152
59.7677 -29.9988 1.8724 97 62 153
59.6967 -21.7118 1.81701 90 66 116
59.7652 -21.7782 1.8321 90 66 116
59.8982 -30.0829 1.83256 99 64 156
49.7013 -16.5147 0.00866353 59 93 79
51.245 -16.6953 0.0352322 64 89 88
53.2842 -13.544 0.00869988 72 49 99
53.8963 -36.2887 0.00689429 90 39 172
53.6281 -13.8175 0.00938769 83 53 112
54.5031 -14.6307 0.00815874 81 51 111
54.8317 -36.225 0.00800866 98 44 179
55.4443 -15.6995 0.00896997 76 51 107
55.7842 -38.0489 0.00684643 79 38 160
55.9907 -16.2446 0.0169437 86 57 111
56.3945 -39.4631 0.00694276 82 37 164
55.9217 -11.8555 0.0091594 72 48 100
56.047 -13.1402 0.00811184 73 48 106
56.4614 -39.5313 0.00634381 82 37 164
55.9843 -11.9219 0.00919611 72 48 100
56.8673 -38.045 0.00627884 81 40 160
56.4575 -12.3938 0.0093171 75 47 101
57.8058 -39.4613 0.00633927 89 46 170
57.4029 -13.3438 0.0099191 74 47 105
58.0058 -39.1937 0.00563896 83 42 162
58.4173 -38.8559 0.0065088 87 47 162
57.6071 -13.541 0.00925336 76 47 105
51.9332 -21.9798 1.87344 77 63 90
51.8684 -22.1067 1.89287 78 63 89
51.795 -22.5179 1.96354 79 63 90
51.7946 -22.59 1.97326 83 67 94
51.8053 -22.6565 1.98447 85 69 96
51.7655 -22.742 1.99502 84 68 95
51.7328 -22.859 2.00508 80 65 88
51.7383 -22.923 2.01485 80 65 88
51.7361 -22.9997 2.02313 80 65 88
51.8029 -23.1892 2.05335 78 64 89
51.8624 -27.915 2.12012 73 58 87
51.7999 -23.4001 2.0783 75 59 85
51.7996 -23.4733 2.08691 74 60 86
51.8736 -27.808 2.12827 73 59 85
51.804 -23.5399 2.09591 74 60 86
51.8727 -28.0578 2.11138 73 58 87
51.801 -23.8052 2.12269 75 61 87
51.8644 -23.9365 2.14192 74 60 86
51.8738 -24.0036 2.1481 75 61 87
51.8624 -24.0743 2.15352 76 62 88
51.8698 -24.1433 2.16055 76 62 88
51.8735 -24.209 2.16562 76 62 88
51.8693 -24.2828 2.17167 77 62 89
51.9422 -24.4095 2.18858 78 63 89
51.9391 -24.4767 2.19288 81 64 88
51.9998 -24.6085 2.20511 82 64 90
52.0081 -24.6827 2.21074 81 63 89
52.0707 -24.745 2.21366 79 61 88
52.0709 -24.8145 2.21797 74 59 87
52.1423 -24.8813 2.22183 72 60 88
52.1383 -24.9541 2.22507 73 60 89
52.2064 -24.949 2.22525 78 57 101
52.2113 -25.0175 2.22872 79 59 103
52.4102 -25.2859 2.237 75 48 120
52.4044 -25.3557 2.23795 75 47 121
52.4757 -25.3573 2.23897 75 47 122
52.5462 -25.422 2.24114 75 47 121
52.5437 -25.4906 2.24335 75 47 122
52.674 -25.622 2.2443 76 48 123
52.7449 -25.6243 2.24388 76 48 123
52.7464 -25.6934 2.2462 75 47 122
52.811 -25.7577 2.24559 73 45 121
52.9489 -25.8962 2.24767 68 41 118
53.0145 -25.9629 2.24823 71 44 121
53.0219 -26.0336 2.24818 75 47 123
53.1463 -26.0952 2.24638 78 50 125
53.214 -26.1613 2.24522 77 49 124
53.2874 -26.2343 2.24329 77 49 125
53.3598 -26.301 2.24183 76 49 126
53.4245 -26.2962 2.24211 77 49 126
53.423 -26.3711 2.24144 76 49 125
53.4854 -26.3668 2.24085 77 49 126
53.4845 -26.4372 2.23908 77 49 126
53.5536 -26.502 2.23833 79 49 130
53.7504 -26.5685 2.23545 84 50 133
53.8889 -26.7077 2.22824 81 52 134
53.9538 -26.7719 2.22414 82 53 134
54.0242 -26.7762 2.22299 83 52 132
54.0212 -26.837 2.22082 81 52 132
54.0913 -26.8426 2.22 82 53 133
54.1578 -26.9037 2.21668 81 52 134
