ply
format ascii 1.0
comment Created by Open3D
element vertex 1248
property double x
property double y
property double z
property uchar red
property uchar green
property uchar blue
end_header
-35.8828 -47.5583 0.0101474 127 7 156
-42.0232 -47.2909 0.011106 130 20 139
-42.6974 -48.9788 0.00908178 129 24 136
-42.7662 -44.5907 0.0110989 107 16 112
-43.5113 -49.6583 0.0116009 119 28 123
-43.5771 -45.4003 0.0128215 114 19 123
-42.7652 -48.9087 0.0120895 126 24 134
-42.8312 -44.4615 0.0100347 104 13 108
-46.4735 -43.9278 0.0106185 102 13 103
-46.4132 -48.4434 0.0106635 110 20 116
-42.904 -44.3872 0.0109276 104 15 109
-42.8392 -48.7851 0.0106612 124 22 132
-47.287 -46.8163 0.0124491 110 16 113
-43.037 -44.3248 0.0112987 105 13 111
-42.9673 -48.5796 0.0114546 124 22 131
-32.7086 -37.9131 0.00860064 87 10 116
-32.5762 -46.6882 0.0107531 117 7 147
-32.6441 -42.4302 0.00956594 103 5 128
-42.7648 -46.2146 0.0119742 123 20 127
-42.6934 -50.6041 0.0114103 220 120 210
-47.2191 -46.6862 0.0128419 109 15 112
-37.5026 -47.4257 0.00895232 120 6 145
-37.573 -42.9027 0.0116339 103 10 124
-43.5795 -48.0347 0.00927397 124 22 132
-43.648 -43.3131 0.0118452 105 20 113
-32.1014 -29.6739 0.00551198 68 108 83
-31.8329 -47.292 0.00808163 117 5 149
-31.9013 -43.1729 0.00843454 105 4 132
-32.0332 -34.0617 0.00700941 66 47 89
-31.9642 -38.7865 0.0109365 90 7 121
-43.646 -47.5641 0.0102363 122 23 129
-43.7171 -43.3077 0.0126175 105 18 112
-25.2841 -36.4891 0.0097511 66 15 84
-25.1513 -45.6056 0.00657766 94 5 121
-25.2218 -41.3544 0.00928289 78 12 98
-25.4213 -27.9867 0.00804672 106 97 103
-25.3531 -32.2433 0.0110227 55 20 74
-43.7659 -42.9758 0.0116754 102 19 109
-43.7158 -47.4975 0.0110557 122 24 127
-37.6417 -44.3328 0.00959395 107 8 127
-37.5703 -48.577 0.011791 133 10 161
-23.2601 -27.3141 0.00741537 123 124 111
-25.0167 -28.8675 0.00716924 48 21 62
-24.8151 -40.0719 0.00847588 73 14 93
-24.9469 -31.2957 0.00827881 51 22 70
-24.8776 -35.5497 0.00977571 60 18 81
-24.6786 -48.9145 0.00644859 109 57 136
-24.7454 -44.3242 0.0079963 81 10 106
-48.5711 -47.8922 0.0116018 104 13 108
-42.1611 -46.8903 0.0126256 127 22 135
-43.9873 -43.3042 0.0116824 105 16 111
-43.9113 -47.698 0.0116249 121 22 128
-37.5011 -45.0659 0.0125945 108 8 132
-37.441 -49.4539 0.0102418 139 8 166
-49.719 -47.7639 0.0096118 91 12 101
-44.191 -42.8379 0.0142499 100 14 102
-44.1195 -47.1553 0.010199 115 19 122
-44.8557 -45.7415 0.0127514 121 16 126
-44.9252 -41.3457 0.0133844 86 31 88
-44.7931 -50.1284 0.0105636 114 22 105
-44.9313 -50.4673 0.00980783 193 95 172
-45.0622 -41.8867 0.0118872 97 18 101
-45.1997 -50.8003 0.00829345 245 136 217
-45.6724 -48.9717 0.0105485 116 17 123
-45.7413 -44.7294 0.00992323 116 18 121
-45.3376 -41.9618 0.012107 96 17 100
-45.2637 -46.2149 0.0139184 117 16 118
-45.8636 -41.829 0.0134781 92 20 95
-45.8078 -46.0741 0.012348 119 18 124
-45.7385 -50.671 0.0101881 253 153 243
-34.5963 -46.8141 0.0105819 118 7 147
-34.6697 -42.4283 0.00996587 101 6 126
-34.7317 -40.9419 0.0141879 99 7 124
-45.3999 -49.5216 0.00863117 115 24 117
-45.4661 -45.134 0.00979552 123 20 126
-45.6153 -41.4189 0.012905 92 20 90
-45.5397 -45.8028 0.010404 122 19 128
-46.8185 -44.9975 0.0111507 109 15 110
-46.7543 -49.2467 0.0125984 118 20 121
-46.8189 -48.6419 0.0107743 107 12 112
-46.8779 -44.3311 0.0116949 102 16 105
-40.6088 -50.5999 0.0086003 243 115 252
-40.6725 -46.0194 0.012325 116 11 132
-46.9526 -49.0532 0.00859858 113 15 114
-47.0147 -44.6614 0.0114408 103 16 106
-47.0194 -48.9815 0.0112425 109 14 111
-50.9313 -50.6707 0.00883346 129 39 126
-47.0913 -48.9137 0.00855865 108 14 111
-47.1672 -44.4604 0.0123617 103 16 105
-47.6246 -50.468 0.00834828 145 11 134
-47.7052 -43.7157 0.0129971 100 21 104
-34.9348 -39.9373 0.0116513 97 11 119
-34.8726 -44.3238 0.0123327 109 5 134
-34.8029 -48.4378 0.00909267 128 7 158
-36.1517 -43.4435 0.0096285 108 8 132
-36.0808 -47.6944 0.0104071 134 9 161
-48.7007 -44.6665 0.0100713 168 106 186
-48.6449 -48.9117 0.00955783 102 16 108
-53.2983 -50.4685 0.00690553 255 169 244
-39.123 -50.875 0.00851928 227 49 243
-39.1931 -46.7553 0.0115703 119 6 138
-49.0389 -50.195 0.00799322 99 14 99
-49.1129 -45.8055 0.00937988 180 104 192
-37.5063 -43.2476 0.0133429 106 9 125
-37.4309 -47.496 0.0106609 121 7 147
-49.1791 -50.0604 0.00759743 99 13 104
-49.2519 -45.67 0.0117241 164 104 188
-32.8468 -38.8539 0.00733363 90 6 117
-32.7779 -42.7734 0.00882724 102 7 132
-43.1762 -43.5204 0.0102904 103 19 105
-43.1041 -47.9081 0.0102679 127 21 132
-40.4075 -50.8713 0.00852931 247 88 251
-40.4663 -46.489 0.00950653 118 8 133
-49.7243 -47.294 0.00882548 178 108 196
-34.4702 -47.7044 0.00970006 122 6 150
-34.5328 -43.4394 0.0111398 106 5 131
-34.5987 -39.1929 0.0132425 90 28 106
-50.1279 -46.4118 0.0101143 80 7 89
-50.0549 -50.3264 0.00958107 88 23 89
-50.1234 -50.7336 0.00844435 254 223 255
-50.185 -46.354 0.0103946 72 3 84
-27.0396 -28.5955 0.0069665 94 79 99
-28.3898 -31.2275 0.00699342 62 20 84
-28.322 -35.6165 0.00798279 77 12 106
-26.9047 -37.3704 0.00869091 72 11 104
-28.2529 -40.001 0.0098216 93 6 121
-26.9714 -32.9809 0.0102868 63 18 85
-26.832 -41.8233 0.0102596 85 5 118
-26.772 -46.209 0.00929728 108 7 137
-26.7046 -50.6004 0.00552213 255 152 255
-27.3106 -38.2498 0.009778 81 10 110
-27.4428 -29.9425 0.00814825 53 20 73
-27.3782 -33.8624 0.0097329 66 17 91
-27.2448 -42.6359 0.00931418 98 5 122
-50.2587 -50.6005 0.0077794 254 194 254
-50.3291 -46.2135 0.0109591 88 20 97
-36.2188 -46.8192 0.00899092 118 7 148
-36.2865 -42.4298 0.0135104 103 7 123
-50.8004 -49.86 0.00818717 98 27 103
-51.1349 -49.2532 0.00804536 80 11 80
-51.2032 -48.9143 0.00880727 253 197 255
-49.8527 -46.217 0.011167 240 169 246
-48.1625 -46.286 0.0109128 110 15 109
-48.0979 -50.5358 0.00858338 152 17 143
-51.7437 -48.0373 0.00815012 70 0 69
-51.7489 -48.3697 0.00865796 86 9 81
-35.2689 -42.0923 0.0124646 102 8 126
-35.2038 -46.4118 0.0106651 118 7 146
-46.753 -50.8724 0.00819708 244 156 230
-46.8238 -46.6142 0.0104879 110 14 112
-51.8797 -48.4452 0.00735875 105 24 100
-36.6929 -46.9561 0.0107089 120 5 148
-36.7688 -42.7104 0.0134589 105 8 124
-41.6889 -43.5741 0.0121671 49 0 60
-41.6186 -47.831 0.0111885 137 17 147
-34.7373 -48.9092 0.00773578 132 8 164
-34.8678 -40.1388 0.0112173 97 9 122
-34.7961 -44.5266 0.01119 110 5 134
-52.0862 -47.8998 0.0108072 99 34 105
-39.323 -47.9651 0.0105021 123 5 145
-39.3984 -43.7137 0.0139579 99 19 106
-46.1433 -47.0192 0.00933767 115 17 118
-46.2007 -42.7798 0.0101611 100 14 103
-38.1773 -50.3321 0.00829486 166 40 175
-38.2443 -45.8808 0.0127297 112 6 132
-38.5879 -43.1071 0.0103786 105 58 112
-38.5083 -47.3566 0.0119537 119 8 141
-25.1497 -43.9891 0.00877403 84 10 109
-25.2839 -34.8715 0.0101878 64 18 82
-25.355 -30.6241 0.00812949 53 21 70
-25.2191 -39.7355 0.00959362 75 13 96
-53.163 -50.6685 0.0100009 243 135 225
-45.8721 -46.7553 0.00939472 115 17 118
-45.9474 -42.6373 0.0104788 101 15 104
-29.9431 -41.759 0.00786382 97 7 123
-30.0106 -37.2349 0.00867607 86 9 115
-30.1461 -28.3904 0.00570334 93 72 103
-29.8065 -49.5185 0.00749203 131 7 158
-29.8748 -46.0107 0.00836011 114 5 148
-30.0775 -32.9841 0.00772851 70 16 95
-53.4332 -50.127 0.00774732 134 65 119
-44.2505 -43.1743 0.0103641 105 16 110
-31.9007 -44.8601 0.00942274 111 5 139
-31.9697 -40.6084 0.0106457 95 5 124
-32.0347 -36.5612 0.0100696 80 14 106
-26.9718 -34.8045 0.00791095 68 16 90
-28.3205 -35.82 0.0092049 78 12 109
-26.9052 -39.0615 0.00974748 81 9 111
-26.7712 -47.633 0.00648783 115 7 145
-26.8406 -43.3786 0.00917466 95 4 121
-28.2542 -40.0683 0.00862553 93 6 121
-28.4574 -27.3132 0.00719541 102 91 103
-27.0397 -30.5497 0.00934039 55 20 76
-28.3932 -31.5662 0.00900682 63 18 86
-27.7153 -29.0005 0.0071063 80 59 90
-27.5133 -41.8261 0.00967157 95 4 121
-27.441 -46.0791 0.00787277 105 4 134
-27.3766 -50.1279 0.00577468 117 26 131
-27.5796 -37.302 0.00987623 82 11 107
-27.6499 -33.051 0.00928267 65 17 92
-32.3007 -48.3055 0.0084908 120 7 151
-32.4419 -39.7988 0.0107384 94 5 121
-32.3705 -43.9221 0.0110462 109 5 134
-32.9135 -49.1821 0.00775276 127 6 161
-33.0491 -40.6816 0.00896464 98 6 122
-32.9792 -45.0658 0.0115806 113 7 141
-29.0677 -30.3521 0.00666991 55 15 78
-28.7947 -47.9686 0.00778794 121 8 152
-28.9984 -34.8044 0.00845081 74 14 102
-28.9285 -39.1958 0.0105247 95 8 123
-38.177 -47.0919 0.0133901 117 7 142
-21.9062 -26.9743 0.00743334 134 136 119
-48.2377 -44.4528 0.0122016 173 105 191
-42.0178 -49.527 0.0114636 127 16 137
-42.0904 -45.1348 0.0099571 120 19 125
-41.4787 -48.6416 0.0100849 128 5 147
-41.5481 -44.3898 0.0120329 115 17 120
-46.5466 -44.1218 0.0116747 102 16 103
-46.4829 -48.3756 0.0107214 106 14 113
-37.1015 -47.9634 0.00990223 128 5 155
-37.1607 -43.3821 0.0124654 105 8 124
-31.494 -36.2232 0.00908018 83 12 111
-31.4297 -42.3016 0.0100356 102 7 131
-31.6244 -27.4358 0.0133272 86 67 95
-31.5639 -31.8349 0.00690826 66 16 85
-36.2835 -49.3189 0.0105881 132 5 162
-36.3542 -45.135 0.0125521 112 7 136
-31.8318 -35.2084 0.00682945 75 37 98
-31.9007 -30.9582 0.00676009 62 37 76
-31.7658 -39.4655 0.0101508 92 5 119
-31.6293 -48.0389 0.0092239 121 7 154
-32.1718 -44.5939 0.00951054 112 7 136
-32.2392 -40.2068 0.00874671 95 6 124
-28.1846 -30.7545 0.00655036 57 17 79
-28.122 -35.0118 0.00899427 72 15 100
-27.9846 -43.7825 0.00834536 98 4 126
-27.9166 -47.8303 0.00851278 121 6 153
-28.0548 -39.5341 0.00905117 89 5 119
-31.5659 -44.2619 0.00809732 108 7 135
-31.8253 -27.184 0.0146993 87 69 97
-31.7644 -31.5654 0.00706853 64 17 83
-31.4979 -48.6426 0.00911939 123 6 155
-31.6991 -35.4783 0.00977091 80 21 102
-31.6294 -39.8672 0.0120287 91 4 117
-36.9627 -50.0585 0.00981934 156 16 169
-37.0263 -45.9373 0.0124805 109 6 137
-37.0892 -41.5482 0.0137719 96 60 116
-47.765 -44.3919 0.0110884 100 21 100
-47.6947 -48.7738 0.0103196 106 11 111
-49.6577 -49.2514 0.0103995 99 21 105
-34.9365 -46.3487 0.0101239 118 7 145
-35.0064 -41.7545 0.012257 101 8 125
-34.8692 -50.5979 0.0101478 242 70 248
-50.2559 -48.6474 0.011458 92 21 99
-50.0613 -49.6524 0.0106712 104 24 111
-27.5769 -39.7966 0.00965549 89 6 120
-27.5091 -44.1854 0.0090925 101 5 128
-27.4436 -48.575 0.00688656 122 9 153
-27.6473 -35.4096 0.00923849 74 16 103
-27.7147 -30.957 0.00894241 59 19 79
-25.145 -50.5459 0.0136324 248 142 252
-25.2165 -46.1441 0.00617701 97 6 123
-25.4206 -32.9182 0.0105782 58 20 77
-25.4897 -28.5268 0.00826573 71 52 79
-25.3517 -37.0348 0.00946856 67 15 87
-25.2829 -41.417 0.0088477 79 11 102
-32.2366 -43.1744 0.00995136 105 6 133
-32.3059 -38.7194 0.00975121 92 8 121
-35.0022 -45.0006 0.0111511 110 8 136
-34.9358 -49.5853 0.00942811 133 7 162
-35.0688 -40.7445 0.0151756 98 7 124
-30.3495 -50.1961 0.00812373 114 0 126
-30.4178 -43.9867 0.00896761 104 7 134
-30.486 -39.732 0.00859117 94 8 123
-30.5483 -35.2105 0.00776163 81 14 109
-30.6192 -30.9601 0.00663475 58 16 80
-45.5325 -43.8494 0.0101248 110 14 111
-45.4641 -47.0972 0.0124237 116 20 118
-29.8077 -49.7889 0.00746525 132 12 159
-29.8719 -45.7407 0.00934322 114 5 147
-29.9434 -41.4914 0.00965528 98 5 122
-30.006 -36.9692 0.00909866 86 9 116
-30.1439 -28.6623 0.00656124 94 73 104
-30.0778 -32.7121 0.00787961 68 15 93
-29.8066 -41.8886 0.00796916 95 6 125
-29.8783 -38.5187 0.0082063 91 7 121
-29.7421 -46.281 0.00863984 114 5 146
-30.0093 -29.7422 0.00675718 77 50 93
-29.6745 -50.6705 0.0078913 223 81 227
-29.9399 -34.1252 0.00831854 71 15 102
-39.6705 -45.0709 0.0107526 114 10 131
-24.4739 -28.3939 0.00734266 43 23 58
-24.4061 -33.1172 0.00930683 53 19 70
-24.2699 -41.6241 0.00804729 82 8 100
-24.341 -37.5006 0.00898015 67 15 85
-24.2046 -46.0131 0.00644679 91 47 105
-24.2734 -45.9446 0.00610864 58 18 74
-24.4059 -37.4399 0.00960421 66 16 86
-24.5423 -28.3228 0.0080294 44 23 55
-24.4738 -32.7121 0.0107032 52 20 70
-24.3389 -41.8251 0.00771989 79 13 102
-24.2142 -50.3269 0.0138749 204 134 207
-24.5451 -32.5758 0.0083058 53 20 70
-24.6107 -28.059 0.00772278 108 98 108
-24.4743 -36.8279 0.00992994 66 16 81
-24.4096 -41.9599 0.00844864 79 14 100
-24.3406 -46.2127 0.00728924 88 49 103
-39.6651 -43.4498 0.0132467 40 0 48
-39.5931 -47.8328 0.0121328 126 8 148
-30.9516 -39.5303 0.008807 94 6 122
-30.8221 -48.9123 0.00749458 126 8 157
-30.8824 -44.6588 0.00893972 116 6 140
-31.0906 -30.7547 0.00706616 64 23 84
-31.0207 -35.2791 0.00813025 79 15 107
-24.5471 -36.7646 0.00989267 66 15 82
-24.3372 -50.6665 0.0125817 206 72 207
-24.4084 -46.4156 0.00546588 89 51 106
-24.4751 -41.0183 0.0090365 76 15 95
-24.6796 -28.2614 0.00782808 53 37 58
-24.6094 -32.5118 0.008841 55 20 70
-24.6092 -36.6971 0.00839742 75 19 90
-24.7462 -28.3951 0.00736107 48 27 60
-24.6804 -32.4459 0.00828367 56 19 72
-24.5445 -41.2192 0.00746574 73 16 96
-24.4741 -45.4717 0.00825637 81 26 106
-51.0718 -47.9685 0.00994522 254 201 255
-24.749 -32.3107 0.00913291 53 21 71
-24.4784 -49.9344 0.0115161 113 41 134
-24.5417 -45.6734 0.00702965 81 29 103
-24.6759 -37.1651 0.00986734 62 13 79
-24.8117 -28.0537 0.0087086 108 97 105
-24.6116 -41.4228 0.00967427 77 15 97
-49.252 -46.2786 0.0112025 110 19 114
-49.1802 -50.5354 0.0104472 146 73 144
-43.7772 -44.5954 0.0110748 111 14 119
-43.7106 -49.1168 0.0119726 119 25 122
-33.5163 -40.6779 0.00807129 99 5 127
-33.3855 -49.4522 0.00899442 130 7 160
-33.4522 -45.1981 0.00979486 113 6 138
-24.9489 -33.1158 0.00804494 57 20 74
-24.674 -50.1908 0.0131848 105 22 122
-24.879 -37.5032 0.0102856 102 48 123
-24.8122 -41.8956 0.0101339 78 14 98
-24.7446 -46.2816 0.00770921 93 35 116
-30.2091 -37.1687 0.00837421 88 9 119
-30.1435 -41.5542 0.00866771 98 8 124
-30.0762 -45.7426 0.00856158 112 5 144
-30.3471 -28.6642 0.00608844 93 72 103
-30.2808 -33.054 0.00805858 69 16 96
-33.1156 -40.6106 0.00857461 98 7 121
-33.0488 -44.6602 0.00989723 108 5 136
-25.0166 -40.1399 0.00910974 95 37 119
-25.2176 -27.244 0.0077764 133 128 126
-25.1478 -31.6292 0.0102932 54 20 71
-25.0831 -35.7505 0.0112758 63 18 83
-24.9495 -45.9435 0.00757272 89 8 117
-24.8915 -50.3282 0.0141896 177 98 180
-40.4053 -46.5566 0.0115491 120 9 137
-25.4194 -32.3749 0.00817781 56 19 73
-25.2839 -40.8795 0.0082198 79 12 101
-25.1498 -49.9915 0.00475489 137 53 161
-25.2185 -45.6077 0.00675811 93 4 122
-25.3551 -36.4936 0.00913296 67 17 84
-25.4886 -27.986 0.00989401 105 98 104
-25.5557 -28.392 0.00719483 86 69 89
-25.2177 -49.6564 0.00517849 127 52 155
-25.4869 -32.5808 0.00878727 59 18 79
-25.354 -41.0813 0.00937398 78 12 102
-25.2824 -45.4691 0.00781349 97 5 128
-25.4167 -36.9614 0.0104867 66 14 86
-25.7567 -35.5483 0.00808405 64 18 84
-25.5554 -48.3101 0.00596867 118 49 140
-25.6209 -44.0519 0.00861241 89 5 116
-25.689 -39.8018 0.00996041 76 11 101
-25.8259 -31.2308 0.00966739 55 23 73
-25.6223 -49.4541 0.00495312 124 52 154
-25.6898 -45.201 0.00711764 101 5 130
-25.825 -36.6286 0.00926436 68 14 89
-25.8923 -32.3737 0.00852207 58 18 80
-25.7572 -40.9466 0.00939917 82 13 104
-25.9598 -28.1218 0.00782831 104 97 105
-25.7564 -49.3189 0.0056825 126 53 158
-26.0279 -31.6961 0.00869197 58 21 76
-25.8915 -40.2057 0.00982818 89 22 115
-25.8216 -44.4568 0.00925572 94 5 121
-26.0939 -30.0802 0.00963602 52 21 70
-25.9596 -35.9564 0.00911563 67 15 88
-52.8918 -49.382 0.00735888 144 71 127
-25.8922 -49.1133 0.00560646 134 61 164
-25.9625 -44.8642 0.00696573 101 3 128
-26.0276 -40.6087 0.00862546 82 10 110
-26.1632 -34.2011 0.0091898 63 18 85
-26.2265 -29.9449 0.008409 52 21 71
-26.0979 -38.4505 0.00972647 75 13 99
-45.7403 -44.1885 0.00992154 115 16 115
-45.3322 -42.5107 0.0114891 98 14 102
-45.2648 -46.7479 0.0111122 115 19 119
-45.6628 -48.439 0.0117456 113 23 123
-31.7622 -41.081 0.00778713 98 9 125
-31.6306 -49.6589 0.00784478 133 6 162
-31.6954 -45.402 0.00846026 113 5 143
-31.8337 -36.8289 0.0081743 84 12 112
-31.9025 -32.5776 0.00742315 56 30 75
-31.9668 -28.3372 0.0136312 80 73 90
-26.4994 -27.314 0.00723554 122 115 119
-26.1628 -48.9151 0.0054152 121 48 150
-26.2292 -44.3895 0.00842849 95 4 128
-26.2981 -40.1369 0.00943313 81 9 108
-26.4333 -31.8359 0.00962045 60 20 81
-26.3651 -36.0884 0.0109213 68 15 92
-26.2959 -40.2051 0.00768491 81 9 108
-26.4316 -31.6353 0.00742396 58 20 78
-26.1613 -48.7107 0.00536092 120 46 147
-26.2334 -44.5973 0.007976 98 4 128
-26.5022 -27.5126 0.00819466 116 110 114
-26.3624 -36.0236 0.00928402 67 16 91
-52.3545 -49.5889 0.00910681 102 40 91
-43.5768 -49.7229 0.0119762 118 28 121
-26.6354 -27.3156 0.00659431 119 113 117
-26.5702 -30.9595 0.00762836 57 21 76
-26.3645 -43.8521 0.00781759 95 4 123
-26.4299 -39.4636 0.00925227 80 10 108
-26.499 -35.3434 0.00990082 68 16 88
-31.8315 -33.4558 0.00680451 64 26 82
-31.6306 -46.5505 0.00799157 116 8 146
-31.7 -42.3006 0.00834793 101 7 131
-31.899 -28.9327 0.00681653 90 71 99
-31.763 -37.7061 0.00856294 85 8 113
-26.5668 -39.802 0.00818044 81 9 111
-26.4316 -48.5744 0.00616226 127 38 158
-28.4604 -45.5416 0.00916466 106 5 135
-28.7264 -28.4606 0.00663243 99 80 103
-28.6583 -32.7128 0.00777217 68 17 93
-26.701 -31.4925 0.00847777 59 20 77
-26.6347 -35.7535 0.0105652 70 16 90
-28.5931 -37.2362 0.010052 79 11 112
-28.5268 -41.4873 0.0110839 100 6 130
-26.499 -44.053 0.010235 97 6 126
-27.1054 -30.9552 0.00760951 58 20 81
-28.3217 -28.8673 0.00655078 92 72 97
-27.1733 -28.1212 0.00873793 103 91 103
-28.2527 -33.2529 0.0082995 68 17 96
-27.0373 -35.3453 0.0091741 70 18 92
-26.9728 -39.7323 0.00878245 83 7 115
-26.908 -44.1222 0.00982325 97 3 125
-38.6495 -47.2906 0.00901455 117 7 140
-27.3774 -32.8478 0.00872055 67 16 91
-27.2415 -41.6256 0.00842353 89 5 119
-27.4447 -28.7969 0.0074489 92 74 97
-27.309 -37.0966 0.0100957 76 12 105
-27.1806 -45.8742 0.00910726 104 5 132
-27.5807 -34.8043 0.00784025 69 14 97
-27.3767 -47.4937 0.00707261 116 6 147
-27.4429 -43.3083 0.00866721 99 5 129
-27.5109 -38.9223 0.00917619 85 10 113
-27.6489 -30.4162 0.00798908 57 19 76
-46.6154 -50.2004 0.010121 106 27 108
-46.6818 -45.9464 0.0100871 115 17 116
-27.6482 -38.7182 0.00876803 85 8 114
-27.5162 -47.4945 0.00765642 116 6 147
-27.7161 -34.1292 0.00897741 68 15 95
-27.7788 -29.8782 0.00762517 53 18 72
-27.5805 -42.9729 0.0106603 100 4 129
-24.7011 -50.1277 0.0120206 116 30 138
-24.8796 -36.7623 0.0117056 72 21 90
-24.949 -32.5125 0.010063 57 20 74
-25.0132 -27.6534 0.00739726 127 123 122
-24.7467 -45.2699 0.00704545 85 9 107
-24.8113 -41.0168 0.00850635 76 14 97
-27.1754 -49.3174 0.00655338 137 42 168
-27.2452 -44.9298 0.00901214 103 4 131
-27.3804 -36.4266 0.00912913 74 14 104
-27.5133 -27.312 0.00696415 113 105 112
-27.4439 -31.699 0.00977074 63 19 84
-27.31 -40.8134 0.0102483 89 5 117
-27.645 -43.1759 0.00785902 99 5 129
-27.5799 -47.4266 0.00658876 115 6 147
-27.7147 -38.319 0.00979055 85 9 113
-27.7851 -34.0654 0.00907664 69 16 96
-27.8488 -29.8101 0.00875846 53 20 73
-27.7821 -38.5172 0.00905618 86 9 115
-27.8529 -33.9973 0.0103278 67 17 96
-27.9164 -29.7444 0.00757875 53 20 73
-27.7155 -42.7753 0.0091583 99 5 129
-34.6007 -41.9661 0.0127063 101 5 127
-28.0541 -29.4736 0.00654261 74 47 88
-27.7783 -47.0893 0.00727085 115 6 149
-27.8482 -42.7031 0.010206 99 5 129
-27.9244 -38.3174 0.010219 86 9 113
-27.9841 -33.8619 0.0091619 70 18 98
-41.2177 -47.2228 0.0094702 133 16 150
-28.1175 -46.6132 0.00867944 113 6 146
-28.1891 -42.3649 0.00934483 96 5 125
-28.1871 -46.8214 0.00774439 115 7 149
-42.0923 -45.7406 0.0106335 122 19 126
-42.0205 -49.9891 0.0103706 136 17 145
-48.1686 -47.833 0.00861727 99 13 104
-28.9319 -28.1926 0.00587268 94 78 103
-28.8619 -32.4422 0.00743097 66 17 91
-28.7275 -42.0943 0.00894685 98 5 123
-28.6605 -46.3456 0.00850384 116 6 147
-28.7944 -36.6966 0.0088306 79 12 109
-28.5927 -50.5979 0.00706452 218 88 220
-29.0651 -27.9859 0.00599079 94 76 100
-28.8618 -41.3558 0.00827233 95 7 124
-28.9304 -37.0999 0.00952118 84 9 112
-28.9953 -32.8464 0.0084315 68 16 93
-28.7266 -50.4654 0.00726887 255 157 255
-28.7942 -45.6027 0.00877246 112 6 140
-45.1264 -47.2237 0.0109273 115 24 120
-45.2068 -42.9729 0.01339 103 16 107
-26.9711 -31.4973 0.00734923 61 19 82
-26.769 -44.4567 0.00861518 100 4 127
-28.4561 -28.324 0.00705252 100 82 105
-28.3173 -36.8332 0.0106309 82 12 108
-28.2568 -41.2166 0.00999037 95 6 122
-26.834 -40.0734 0.0103712 84 8 111
-26.7008 -48.5746 0.00598631 114 14 144
-26.9028 -35.883 0.00930875 69 15 93
-27.039 -27.3808 0.0073295 110 103 108
-28.3904 -32.7154 0.00838714 68 17 96
-44.3869 -41.837 0.0127947 113 49 109
-44.3198 -46.0774 0.0139064 122 21 127
-44.2545 -50.6015 0.0117867 169 81 155
-33.3855 -44.7944 0.00962669 113 6 138
-33.4553 -40.4081 0.00789921 97 6 124
-33.3177 -49.5218 0.00873818 130 7 160
-41.6194 -45.7423 0.00974579 122 20 130
-41.5577 -50.1272 0.0122644 136 11 149
-29.2001 -45.5372 0.00747009 110 6 143
-29.4007 -34.0599 0.00798876 73 15 100
-29.4708 -29.5404 0.00683629 79 52 95
-29.1334 -50.059 0.00684034 125 11 148
-29.2672 -41.2835 0.01087 98 6 124
-29.3372 -38.3106 0.0109411 91 7 121
-29.4006 -45.6753 0.00869985 111 4 142
-29.6716 -28.057 0.00642388 94 74 101
-29.5369 -36.8958 0.00955106 88 11 116
-29.4679 -41.1486 0.0107639 97 6 124
-29.6041 -32.3092 0.00867324 64 16 89
-49.9842 -47.6965 0.00946427 173 104 195
-50.6659 -50.3325 0.00857812 115 42 124
-29.876 -33.0492 0.00739227 71 18 97
-29.8053 -36.5616 0.00872616 87 12 117
-29.6687 -45.3361 0.00922297 115 6 149
-29.9434 -28.7994 0.00675697 93 74 101
-29.6045 -49.5878 0.00818965 132 10 159
-29.7396 -40.8119 0.0100974 97 6 127
-31.6284 -33.9947 0.00653963 70 14 96
-31.5584 -38.2465 0.00953192 88 10 119
-31.6968 -29.7429 0.00617813 84 55 99
-31.4979 -42.5021 0.00994837 102 6 131
-31.4295 -48.9787 0.0104261 126 5 158
-29.8114 -41.0146 0.00870641 96 5 125
-29.7367 -45.2671 0.00889196 115 6 149
-29.9447 -32.9835 0.00750388 69 16 94
-29.8771 -37.2357 0.00974941 86 9 114
-30.0102 -28.7321 0.00674289 94 74 103
-28.189 -31.9042 0.00742766 64 17 89
-28.0567 -40.4062 0.00989264 93 4 120
-28.1241 -36.2911 0.00979766 78 12 108
-27.9831 -44.7967 0.00922103 102 5 131
-30.013 -44.7974 0.00810587 111 6 142
-30.0753 -40.5442 0.0108417 97 8 125
-30.1442 -35.9498 0.00858169 84 14 112
-30.2718 -27.1874 0.00851518 93 78 100
-29.942 -49.318 0.00895981 133 8 160
-30.2125 -31.6992 0.00768001 62 17 84
-30.4132 -28.0574 0.00549903 91 71 101
-30.1423 -44.5923 0.00858372 109 6 141
-30.2787 -35.8204 0.00920882 85 15 114
-30.2113 -40.339 0.0104013 95 5 122
-30.3483 -31.5678 0.00794822 61 17 83
-32.3062 -47.8349 0.00807902 119 6 150
-32.3773 -43.5816 0.00899351 107 5 133
-32.5735 -36.6964 0.00825407 83 57 96
-32.4411 -39.0576 0.00936762 90 8 119
-30.5502 -27.9199 0.00544103 90 71 99
-30.28 -44.4593 0.00829862 111 6 141
-30.4126 -36.6971 0.00919677 85 11 116
-30.484 -32.4442 0.00754004 66 16 89
-30.3472 -40.2067 0.0110485 97 5 126
-30.2121 -48.9808 0.008974 126 5 158
-47.9021 -45.8681 0.00983204 110 12 111
-47.8257 -50.2627 0.0115734 121 4 118
-33.6567 -43.5132 0.00856062 105 6 133
-33.7238 -39.1236 0.00933952 92 8 119
-33.5855 -46.8871 0.0102118 119 8 147
-38.5141 -49.5866 0.00878463 141 7 164
-38.5772 -45.1981 0.00964173 115 7 129
-30.8856 -44.1201 0.00905159 107 5 137
-31.021 -35.8198 0.008549 84 12 112
-31.0889 -31.2931 0.0081146 60 15 82
-30.8211 -48.374 0.00933655 121 9 155
-30.953 -40.0744 0.0114309 96 7 123
-31.1582 -31.7653 0.00635914 63 16 85
-31.0218 -40.2751 0.00952378 95 6 122
-31.0911 -36.0257 0.00846958 83 12 108
-30.954 -44.528 0.00964465 113 6 138
-30.8888 -48.3056 0.0086576 120 6 153
-31.2248 -31.1594 0.00611399 57 15 81
-31.0191 -43.847 0.0108377 102 6 132
-31.158 -35.0782 0.00855472 78 12 104
-31.0957 -39.4609 0.00942099 92 8 122
-30.9557 -48.2384 0.0086098 121 6 153
-31.4287 -39.4557 0.00965307 91 6 120
-31.4986 -34.7388 0.0099163 75 14 101
-31.3602 -43.8518 0.00960596 104 5 132
-31.2921 -47.9677 0.00925702 120 8 154
-31.5628 -30.3486 0.00622282 78 44 94
-31.4964 -35.0792 0.00708013 78 13 106
-31.5614 -30.8245 0.00678102 67 29 85
-31.4287 -39.1271 0.00999174 90 6 120
-31.3534 -43.3743 0.00965575 104 5 132
-31.2923 -47.9016 0.00950367 121 9 155
-31.7001 -34.8029 0.00706617 76 16 98
-31.5621 -43.3078 0.00912842 102 6 132
-31.629 -39.1942 0.00970825 87 5 115
-31.7645 -30.0819 0.00651101 77 44 90
-31.4956 -47.6982 0.0089892 120 6 153
-31.6291 -43.4428 0.00968612 104 5 132
-31.6977 -39.191 0.00829177 87 5 115
-31.7633 -34.3303 0.00763365 67 20 92
-31.8334 -30.0788 0.00594069 80 44 90
-31.7616 -43.2382 0.0085073 105 4 132
-31.8329 -38.9947 0.00831502 90 7 115
-31.899 -34.7365 0.0075286 70 44 95
-31.9687 -30.485 0.00692418 55 67 69
-31.6978 -47.5615 0.00966334 119 5 152
-22.9878 -27.379 0.00690094 128 129 115
-41.2167 -50.5374 0.0105563 255 175 255
-32.2375 -42.837 0.00953183 103 5 132
-32.3042 -37.9779 0.010682 90 7 115
-32.1655 -47.0918 0.00978385 119 6 148
-32.5091 -49.857 0.00762253 135 6 161
-32.5734 -38.9249 0.0100427 90 8 119
-43.5082 -48.7745 0.0124477 121 22 128
-43.5773 -44.3886 0.010075 111 14 119
-32.6429 -50.5983 0.00747066 235 63 233
-32.7767 -42.0959 0.00893235 100 6 130
-32.8452 -37.372 0.0088735 81 22 100
-32.7111 -46.4818 0.0106349 114 6 145
-33.1145 -46.0778 0.0105107 114 6 144
-33.1775 -41.6904 0.0106281 99 5 127
-50.9349 -49.2521 0.00788478 93 21 95
-30.2116 -34.1309 0.00749138 75 15 103
-30.2821 -29.6085 0.00690581 81 54 97
-30.0739 -42.4302 0.0102832 100 6 128
-30.1447 -38.3851 0.011423 89 6 120
-33.587 -39.1268 0.00804829 92 8 119
-30.3485 -44.1209 0.0090448 108 7 137
-30.55 -32.9141 0.00772373 68 16 92
-30.6173 -28.6623 0.00631152 95 72 101
-30.4155 -41.419 0.00947915 95 6 124
-30.2784 -48.373 0.00853343 121 7 155
-30.4846 -37.1691 0.0104675 87 12 117
-39.3222 -47.093 0.0093515 120 7 141
-33.8545 -41.0139 0.00900719 97 6 127
-33.7909 -45.4024 0.0113234 113 5 140
-43.7114 -46.8907 0.0110933 119 21 122
-43.784 -42.4995 0.0139538 112 49 112
-33.8576 -49.8571 0.00797117 135 7 159
-33.9915 -41.0155 0.00784011 97 6 127
-33.921 -45.2671 0.0121121 113 5 140
-34.1274 -40.817 0.00876859 99 5 127
-34.0567 -45.1967 0.0114994 113 5 139
-32.5753 -49.4575 0.00848329 130 5 157
-32.7081 -40.6778 0.00944667 96 5 126
-34.4662 -48.9178 0.00768854 130 7 160
-34.5981 -40.1416 0.0117943 96 5 122
-34.5344 -44.6555 0.0127052 110 4 136
-35.0727 -48.5794 0.0113775 132 7 161
-35.1342 -44.0475 0.0134628 106 5 133
-35.206 -39.7957 0.0126114 90 35 107
-41.6227 -46.2837 0.0105185 125 17 136
-35.6115 -47.6991 0.00866344 127 9 157
-35.6782 -43.5813 0.012066 106 6 132
-46.8839 -50.6073 0.00988302 231 158 229
-35.879 -47.8304 0.0106702 132 10 160
-35.9482 -43.3118 0.0144028 107 7 131
-51.5371 -49.6572 0.00782427 107 37 100
-36.3524 -47.0862 0.0101018 121 8 152
-36.426 -42.8321 0.0123867 106 7 126
-36.6936 -42.5691 0.01417 103 8 124
-36.6317 -46.9544 0.00888217 120 5 148
-36.8892 -43.9114 0.00962754 105 7 129
-35.3418 -48.7778 0.0106764 131 6 160
-35.4746 -40.0091 0.0116047 89 32 103
-52.893 -49.6601 0.00706228 153 86 140
-36.7023 -46.6896 0.0104426 118 6 145
-36.7557 -42.4293 0.0145906 104 10 125
-42.4297 -50.7337 0.00853573 203 100 191
-42.4997 -46.4832 0.0117485 129 22 132
-32.9104 -39.935 0.00905083 93 9 123
-32.8424 -44.1867 0.010201 107 6 134
-32.7747 -48.2376 0.0102674 120 6 154
-42.8369 -43.6496 0.0102355 105 20 106
-42.7652 -47.5671 0.0147306 125 22 131
-37.1656 -50.7358 0.0081277 223 57 224
-37.2293 -46.3491 0.011443 112 5 136
-37.2922 -41.9658 0.0158251 79 24 91
-37.3002 -49.855 0.00822612 147 7 168
-37.3613 -45.6011 0.0125574 110 6 134
-32.0341 -45.7412 0.00954311 113 5 143
-32.1694 -36.9672 0.00956572 83 12 112
-32.105 -41.4903 0.00976027 98 6 124
-31.9671 -50.8718 0.00799214 247 54 247
-48.2331 -47.499 0.00962031 103 12 107
-37.4351 -50.1929 0.0095649 135 2 147
-37.5015 -45.9388 0.00897844 112 7 136
-24.9492 -39.3951 0.00761084 71 13 90
-24.8119 -48.1728 0.00563614 107 54 133
-24.877 -43.6481 0.0077388 81 10 106
-25.0825 -29.4751 0.00782773 48 22 65
-25.0195 -33.7312 0.00899767 57 18 75
-43.8453 -50.7354 0.00950332 141 59 132
-43.9904 -42.1627 0.0149773 97 42 99
-43.9148 -46.4096 0.0147561 122 22 128
-49.5822 -46.0753 0.0112421 227 148 237
-38.2461 -45.3383 0.0115134 112 6 132
-38.176 -49.7868 0.00937629 143 9 165
-46.1454 -45.8023 0.00969752 116 14 114
-46.0713 -50.0657 0.00925557 117 29 115
-26.77 -48.1012 0.00674599 121 11 148
-28.3903 -28.799 0.00654373 95 77 102
-27.0389 -31.0269 0.00887751 59 21 79
-28.3234 -33.1876 0.00891681 67 16 94
-26.9718 -35.4127 0.0093651 70 18 92
-28.2559 -37.5729 0.00893462 82 10 112
-26.9076 -39.7994 0.0110572 83 8 114
-26.8357 -43.7165 0.00969135 98 4 124
-38.3102 -49.2482 0.0103157 141 8 162
-38.3811 -44.9972 0.0113002 111 5 127
-39.5949 -43.8479 0.0109042 100 17 109
-39.5301 -48.9819 0.0122354 140 12 159
-37.7726 -44.591 0.0139357 107 6 126
-40.0059 -43.385 0.0112415 70 27 79
-39.929 -47.9027 0.0120065 129 7 150
-27.1766 -35.3492 0.0100767 69 16 95
-26.9707 -49.7898 0.00554864 134 51 159
-27.0402 -45.2717 0.00846508 105 5 132
-27.2437 -31.0958 0.00866282 58 20 78
-27.1096 -41.0196 0.00964097 89 5 117
-40.4718 -47.0924 0.0103114 122 9 141
-40.5377 -47.3627 0.0120677 124 8 141
-30.685 -33.2511 0.00697502 70 15 96
-30.4162 -50.3326 0.00866971 189 80 199
-30.4849 -46.0805 0.00783899 115 6 147
-30.6152 -37.5733 0.00932185 89 12 118
-30.7522 -29.0001 0.00595081 92 71 104
-30.5459 -41.828 0.00912358 95 6 124
-45.062 -50.8737 0.00986217 236 127 210
-45.1282 -46.48 0.0094458 118 20 123
-45.1928 -42.09 0.01054 100 18 103
-41.3496 -50.4001 0.00871745 134 47 141
-41.4169 -46.0079 0.0114625 123 15 131
-42.0908 -49.0516 0.00906804 132 13 139
-42.1655 -44.9343 0.0108771 117 19 122
-38.4516 -46.8929 0.0109957 116 7 138
-26.2272 -31.1588 0.00768505 56 21 75
-26.0259 -47.7647 0.00577257 107 10 136
-26.0929 -39.9358 0.0105886 80 11 103
-26.1608 -35.6781 0.00968541 67 15 87
-26.0273 -47.6977 0.00669681 109 8 136
-26.0936 -40.0019 0.00949645 78 10 103
-26.2306 -31.2271 0.00841868 56 21 75
-26.1635 -35.6137 0.00977996 67 16 86
-38.4456 -46.8213 0.00916404 116 6 137
-22.9887 -27.514 0.0094903 134 135 121
-42.3644 -49.9937 0.0115532 128 21 131
-43.0407 -49.9929 0.0101144 124 27 124
-43.1047 -45.9443 0.00967781 120 22 125
-42.8359 -49.2506 0.011008 125 26 134
-42.8984 -44.9994 0.0099219 108 16 115
-26.4997 -43.3791 0.00758489 94 6 122
-28.4571 -49.7213 0.00600841 131 13 158
-26.4296 -47.6281 0.0059646 113 7 144
-28.5254 -44.8626 0.00789323 103 4 131
-26.57 -39.1274 0.00926657 81 9 109
-28.7254 -32.1057 0.00850051 65 15 89
-26.7041 -30.0156 0.00781706 52 21 72
-28.7928 -27.2433 0.00681336 96 86 99
-26.6352 -34.2704 0.00878127 67 17 88
-28.6592 -36.3569 0.00927112 78 10 109
-28.5909 -40.6063 0.0101314 98 6 126
-43.304 -49.1139 0.0089099 118 26 127
-43.3787 -47.2231 0.00946995 122 23 128
-43.4407 -42.968 0.012553 99 20 109
-45.8768 -50.5286 0.00830099 171 75 166
-46.016 -42.0251 0.0137638 94 21 99
-45.9398 -46.414 0.0107833 117 16 120
-43.1765 -44.4597 0.0123234 106 14 113
-24.3386 -36.0895 0.008639 62 18 81
-24.2062 -44.5955 0.00619571 68 15 85
-24.4089 -31.836 0.00846244 52 20 69
-24.4767 -27.5148 0.00757417 141 140 139
-24.2693 -40.3401 0.00906444 76 12 96
-24.1377 -48.9142 0.00572031 98 44 113
-43.0999 -48.9161 0.00898937 121 22 130
-43.1777 -44.6626 0.0109176 110 15 115
-44.0552 -44.1932 0.0116046 110 13 116
-43.9862 -48.3058 0.0100418 117 20 125
-44.0527 -47.499 0.0108685 120 22 125
-44.1163 -43.2361 0.0110589 105 16 110
-51.201 -46.8869 0.0101984 228 172 236
-35.8856 -47.3581 0.0100559 128 5 155
-35.9508 -43.2374 0.0120535 106 7 131
-25.0168 -39.8678 0.00792928 89 30 111
-24.888 -50.5993 0.0143934 227 108 235
-24.9477 -46.2117 0.00596601 88 11 117
-25.0823 -35.4784 0.00988517 63 17 81
-25.1508 -31.3641 0.0105831 54 21 71
-44.1838 -50.1921 0.0102069 115 24 104
-44.2511 -45.8113 0.00971531 120 19 125
-44.3203 -41.6904 0.0134373 51 1 51
-44.5953 -47.6985 0.0102654 118 23 125
-44.6545 -43.3106 0.0142436 105 15 110
-41.2224 -48.644 0.00909681 132 10 153
-41.2771 -44.2485 0.0138875 110 18 119
-44.7221 -43.117 0.0119621 103 15 109
-45.1256 -46.9537 0.00929279 117 22 122
-45.2019 -42.6987 0.0119041 100 15 106
-45.5314 -50.5333 0.00968396 190 94 182
-45.3318 -49.1799 0.00896076 118 23 123
-45.3988 -44.7981 0.0122424 122 18 124
-45.6646 -41.7604 0.0106703 95 17 97
-45.6078 -46.1432 0.0103526 121 20 125
-27.378 -42.5034 0.00824676 95 4 124
-27.5092 -34.1949 0.00818738 69 18 93
-27.3098 -46.888 0.00713638 110 7 142
-27.4438 -38.5864 0.0101344 82 10 111
-27.5823 -29.8117 0.00749968 53 20 73
-45.8077 -50.1944 0.0101652 114 23 119
-45.8744 -45.8057 0.0119097 118 17 121
-45.9408 -41.42 0.0123675 84 31 91
-46.3506 -45.6699 0.0115006 113 15 114
-46.2749 -49.7269 0.00922723 117 19 118
-46.5555 -42.7698 0.0110461 101 17 102
-46.4832 -47.0197 0.00999127 118 20 123
-46.8852 -50.2617 0.00837898 122 28 116
-46.9566 -46.0109 0.0101346 113 17 115
-45.6034 -47.9684 0.00911474 117 25 124
-45.6721 -43.7153 0.0116145 105 15 108
-45.4027 -42.9699 0.0120586 102 16 107
-45.3335 -47.2219 0.0119382 116 22 119
-45.6715 -43.6348 0.0115636 105 15 108
-45.3352 -47.2945 0.0106865 116 22 119
-45.5973 -48.0375 0.00985272 116 26 124
-30.6871 -30.622 0.0062513 57 21 80
-30.6154 -34.8066 0.00728499 78 15 106
-30.4146 -47.6997 0.00804103 119 5 152
-30.4802 -43.3085 0.0101716 103 6 132
-30.5512 -39.1961 0.00939714 90 6 120
-47.8242 -43.9212 0.0119221 98 23 106
-47.7627 -48.304 0.00930335 103 11 110
-47.9739 -43.7832 0.0118588 90 16 93
-47.8976 -48.6466 0.0100561 102 10 109
-48.2986 -47.698 0.0119424 101 12 104
-48.506 -48.103 0.00956402 100 14 105
-48.9108 -47.6992 0.0121454 105 11 107
-49.3794 -47.1562 0.0120385 98 17 109
-49.4472 -47.093 0.00956116 83 8 93
-49.518 -50.6011 0.00864964 255 212 255
-49.585 -46.4183 0.0114054 108 20 110
-50.7322 -50.6661 0.00726323 109 27 109
-50.7953 -46.5551 0.00953575 172 114 181
-50.5325 -49.6559 0.00844365 100 23 105
-50.5938 -49.5249 0.00836359 97 24 106
-33.5171 -46.0089 0.00847655 117 6 145
-33.454 -50.1283 0.00933001 136 3 150
-33.5859 -41.6239 0.00923586 99 5 127
-51.0698 -49.8576 0.00840935 90 27 97
-36.2876 -48.1746 0.00943144 127 8 158
-36.355 -44.1209 0.0104852 110 6 131
-52.0878 -48.306 0.0082093 111 33 108
-50.9369 -47.564 0.00933616 198 135 205
-26.0295 -39.3944 0.00771272 80 14 104
-26.0946 -31.029 0.0077687 55 20 74
-25.8913 -48.169 0.00621549 121 46 151
-25.9594 -43.6476 0.00906248 90 5 117
-41.6187 -48.3055 0.00912601 132 13 145
-41.6877 -43.9169 0.0128244 100 17 104
-44.6575 -49.5846 0.0106229 114 23 119
-44.7235 -45.5446 0.0107679 122 16 126
-44.7927 -41.2847 0.0109074 51 5 50
-54.2426 -50.4651 0.00746766 213 118 202
-37.6378 -46.0694 0.0108826 112 5 135
-26.701 -44.3899 0.00810377 99 4 126
-26.6333 -48.7775 0.00621193 124 33 154
-28.2535 -45.6709 0.00776362 105 4 136
-26.8353 -35.6192 0.010429 70 16 94
-26.9735 -27.3104 0.00692015 121 115 119
-28.524 -28.5935 0.00658124 99 81 105
-28.4582 -32.5096 0.00842461 69 16 95
-26.9036 -31.7022 0.00893383 60 20 82
-28.391 -36.9024 0.0100551 82 12 109
-28.3298 -41.2872 0.0108708 96 7 123
-26.77 -40.0051 0.0104479 84 7 111
-51.8102 -49.6568 0.00977413 91 26 86
-30.0746 -39.0584 0.00854567 96 7 124
-30.2104 -29.9453 0.00730232 80 52 99
-30.1424 -34.1987 0.00783153 74 16 102
-30.0115 -43.3133 0.0100136 100 6 130
-29.9395 -47.5625 0.00832536 119 5 152
-51.0003 -50.196 0.00824693 77 12 80
-32.104 -47.8359 0.00859919 121 6 152
-32.2382 -39.327 0.0111537 95 5 122
-32.1706 -43.5803 0.0100947 107 5 133
-43.7139 -47.6281 0.00932711 122 23 129
-43.7867 -43.3796 0.0122683 105 18 112
-40.1341 -44.9967 0.0120644 111 10 128
-40.0693 -50.797 0.00922731 238 77 249
-46.9594 -44.732 0.0124691 105 14 107
-46.8888 -49.1153 0.0116083 116 18 118
-50.4644 -47.5623 0.013595 176 114 191
-30.7514 -40.0742 0.00899676 93 6 121
-30.8207 -35.8195 0.00817529 85 13 112
-30.8896 -31.5658 0.00708455 62 17 84
-30.6879 -44.3244 0.00931529 113 5 140
-30.6185 -49.1833 0.00936518 128 7 161
-31.1573 -40.8161 0.00864223 95 6 122
-31.0198 -49.585 0.00792973 134 9 163
-31.2266 -36.2255 0.00818602 84 11 110
-31.2926 -31.9681 0.0076162 65 16 88
-31.0886 -45.0622 0.0107677 114 6 143
-31.3558 -27.4432 0.0136252 88 68 97
-38.1723 -47.4251 0.00922602 119 7 143
-38.2429 -43.3745 0.0153199 102 13 118
-45.8736 -42.4968 0.011677 100 14 103
-45.8016 -46.7498 0.0141998 114 18 116
-49.2451 -50.5316 0.00850218 153 82 150
-49.3143 -46.0772 0.01125 93 13 102
-49.2457 -46.6191 0.00966246 102 18 106
-44.8599 -46.6864 0.00953501 120 23 126
-44.9266 -42.3056 0.0104741 96 19 99
-44.7939 -50.8057 0.0106833 167 68 145
-25.082 -28.7303 0.00693453 48 21 64
-24.7449 -48.5772 0.00587053 108 54 134
-24.9474 -35.6803 0.00887222 62 17 82
-25.0195 -33.1162 0.00919247 58 19 74
-24.8112 -44.1912 0.00881735 81 9 107
-24.8772 -40.0704 0.00964838 76 18 95
-40.2745 -48.3722 0.00899873 139 8 158
-42.9688 -48.9795 0.0090779 122 23 132
-43.0319 -44.7353 0.0136783 108 17 113
-25.6232 -28.7326 0.00694192 47 22 62
-25.5535 -33.1159 0.00933733 58 19 76
-25.3514 -45.2683 0.00843222 98 6 127
-25.2859 -49.6542 0.00569963 126 53 153
-25.4856 -36.4914 0.0100507 68 17 86
-25.4176 -40.88 0.00939586 79 11 102
-34.3985 -47.2985 0.0094829 120 7 149
-34.5309 -38.9895 0.00823692 59 18 74
-46.8833 -47.0239 0.00920525 110 16 113
-46.9621 -42.7642 0.0119896 102 31 98
-20.9664 -27.4502 0.00927511 136 137 120
-39.8674 -48.2378 0.0104609 134 6 155
-39.9395 -43.9868 0.0112456 103 17 116
-24.0654 -32.9816 0.00952621 184 132 192
-23.9354 -41.4904 0.00821812 219 132 237
-24.0026 -37.0979 0.00874209 218 147 231
-24.1373 -28.5938 0.0088689 82 47 82
-24.4071 -30.2165 0.00781895 50 22 63
-24.1399 -47.2944 0.00579918 158 110 173
-24.2736 -38.7237 0.0084622 73 13 92
-24.3417 -34.4685 0.00943145 57 18 73
-24.2039 -42.9709 0.00822736 83 12 104
-35.8811 -49.7913 0.00801507 141 10 163
-36.0214 -41.2892 0.0125089 101 8 123
-35.9419 -45.6695 0.0123419 112 4 139
-42.976 -42.9067 0.0103991 51 4 58
-42.8989 -47.4286 0.0126159 125 22 132
-42.3627 -46.8206 0.00957141 126 22 133
-24.5428 -34.1268 0.00934861 56 18 77
-24.474 -38.5185 0.00916385 69 18 87
-24.3393 -46.8216 0.0055591 84 52 102
-24.4069 -42.4327 0.00916948 82 14 103
-24.6101 -29.7447 0.00810081 49 22 63
-49.0465 -48.7096 0.00841755 102 16 107
-28.8621 -28.2602 0.00623502 95 78 102
-28.5906 -46.4161 0.00789867 118 7 147
-28.7283 -37.6407 0.010673 85 12 117
-28.7893 -32.511 0.00752099 68 17 91
-28.5249 -50.6702 0.00703252 233 63 234
-28.661 -41.8951 0.00989128 98 5 123
-50.9365 -50.0619 0.00800793 94 29 98
-28.1901 -45.4036 0.00875693 104 3 135
-24.6782 -33.9994 0.00850943 56 18 72
-24.6088 -38.3863 0.00838001 69 16 88
-24.5394 -42.7715 0.0093263 80 13 100
-24.4754 -47.1576 0.00667561 82 53 101
-24.741 -30.0787 0.00905569 50 21 65
-24.8806 -29.2734 0.00762206 48 21 62
-24.7439 -37.7759 0.0104981 67 15 86
-24.81 -33.3837 0.00904891 57 20 74
-24.676 -42.5005 0.00873599 78 13 103
-24.9476 -29.4052 0.00749336 49 22 65
-24.8788 -33.6582 0.0084384 56 19 73
-24.8112 -38.1789 0.00917633 70 14 90
-24.6777 -46.4836 0.00728177 94 47 116
-24.6166 -50.732 0.0134411 205 59 216
-24.7458 -42.4339 0.0107474 77 12 102
-25.083 -30.8248 0.0079414 53 21 70
-24.9472 -38.0443 0.00859451 72 14 92
-24.8126 -46.8196 0.00682155 94 46 121
-25.0162 -35.0787 0.00952643 63 17 82
-24.8813 -42.2999 0.00829627 77 14 104
-28.8645 -44.8638 0.00861753 105 3 134
-28.9285 -40.6147 0.0107157 99 5 129
-28.9959 -36.3564 0.0111802 80 5 108
-29.0654 -32.0408 0.00819189 65 17 89
-29.1325 -27.7832 0.00695298 95 77 99
-35.14 -42.6357 0.00927761 100 6 129
-24.9477 -46.4844 0.00664904 87 14 114
-25.0159 -43.9231 0.0079733 82 8 107
-25.0793 -39.5293 0.00854278 87 26 106
-25.1543 -35.4155 0.0104498 63 17 80
-25.2194 -31.0255 0.00849706 54 21 69
-24.8732 -50.8723 0.0140212 226 52 246
-29.8043 -45.673 0.00881837 114 5 147
-29.9426 -36.8287 0.0094997 87 11 114
-30.0792 -28.0554 0.00597368 93 73 101
-30.0083 -32.4439 0.00819394 65 16 90
-29.8765 -41.2168 0.00868948 97 6 123
-29.7407 -50.0617 0.0072434 104 0 123
-25.2841 -31.3598 0.00806212 52 21 71
-25.2193 -35.6833 0.00926291 65 16 82
-25.1505 -39.9377 0.00850418 79 16 99
-25.0815 -44.1873 0.00809255 85 10 111
-36.354 -48.9093 0.00841672 130 5 159
-45.3332 -49.992 0.00947347 114 24 122
-45.5367 -49.7253 0.00869901 115 24 118
-45.4563 -41.2256 0.0129187 98 24 93
-45.602 -45.3434 0.0104919 121 18 124
-45.3977 -45.6076 0.0137156 122 18 128
-25.7582 -28.0558 0.00698423 110 102 110
-25.4207 -50.0594 0.00547868 130 44 158
-25.5542 -41.2191 0.00878796 80 14 104
-25.6194 -36.8276 0.00961934 68 14 89
-25.6885 -32.4473 0.00937957 58 18 77
-25.4859 -45.6744 0.00752196 104 5 134
-25.8259 -32.246 0.00804191 58 18 79
-25.7595 -36.6954 0.0114487 68 15 87
-25.6924 -41.0828 0.00975834 81 12 105
-25.5534 -49.8593 0.00518221 136 51 163
-25.8947 -27.8532 0.00920605 112 105 113
-47.0182 -48.3685 0.00845437 105 13 112
-47.0868 -44.1241 0.014076 100 16 104
-25.8926 -45.2014 0.00637002 110 9 137
-26.1635 -29.7448 0.00729814 53 21 70
-26.0909 -33.9962 0.00807238 63 19 83
-25.9551 -40.673 0.00989479 83 9 107
-26.0319 -36.4241 0.0118816 67 15 87
-25.8222 -49.4507 0.00637813 123 48 153
-25.9591 -45.2668 0.00838759 108 9 136
-26.2297 -29.2715 0.00746618 49 21 69
-26.0964 -38.0469 0.0100394 73 14 97
-26.0285 -41.0162 0.00946116 83 8 109
-26.1612 -33.7986 0.011397 59 19 82
-25.9612 -45.4675 0.00713072 106 5 133
-26.1647 -33.591 0.00840401 59 19 82
-26.2287 -29.4734 0.00915921 51 21 68
-26.0286 -41.0814 0.00942707 84 9 110
-26.0924 -37.9748 0.0101513 72 13 95
-26.6353 -39.5275 0.00885654 82 7 110
-26.567 -44.6601 0.00759915 102 5 129
-26.4985 -48.9128 0.00577977 126 44 154
-28.3902 -46.0118 0.00900442 108 7 140
-26.7691 -30.7537 0.00971171 57 19 77
-28.5913 -33.4558 0.00876218 68 17 96
-28.4592 -41.7633 0.00999634 97 5 123
-28.6589 -28.9317 0.00761955 93 70 100
-26.703 -35.2737 0.0108137 68 16 90
-28.5303 -37.7049 0.010395 83 11 113
-50.3338 -47.4275 0.00912067 168 105 186
-26.8395 -40.4091 0.00842808 86 9 115
-28.2547 -41.4201 0.00975799 96 7 123
-26.9055 -35.5509 0.00968848 70 17 95
-28.4555 -28.6614 0.00730563 98 80 104
-26.9709 -31.2937 0.00811938 60 20 80
-28.3898 -32.9192 0.0079769 65 17 93
-28.3281 -37.171 0.0100643 82 10 112
-26.7719 -44.6663 0.00924305 100 4 129
-26.7019 -48.9127 0.00617794 125 36 155
-28.2561 -36.9672 0.00908426 81 11 109
-27.1062 -27.246 0.0065189 118 114 118
-27.0431 -31.499 0.00755253 61 19 82
-26.9735 -36.0222 0.00911308 71 15 94
-28.3215 -32.7114 0.00793603 68 18 96
-26.8347 -44.3261 0.00913263 98 3 126
-26.7694 -48.5778 0.00745299 115 12 146
-28.3886 -28.189 0.00721984 99 81 104
-26.9048 -40.266 0.0103662 84 9 114
-28.3226 -28.2573 0.00632215 99 81 103
-27.0354 -35.9489 0.00974729 71 15 96
-26.837 -48.7752 0.00583601 111 14 142
-27.1749 -27.3795 0.00722156 106 98 107
-28.2551 -32.5099 0.00803372 72 19 97
-27.1108 -31.7 0.00836778 62 20 83
-26.9063 -44.453 0.00858391 99 3 127
-26.969 -40.2052 0.010334 85 8 115
-28.2533 -28.3268 0.00625397 101 83 105
-26.972 -44.6617 0.00828666 103 4 131
-27.1059 -35.8851 0.00920676 72 15 98
-27.1784 -31.8361 0.00786963 60 20 83
-27.2417 -27.5824 0.00682883 109 98 107
-27.0398 -40.1392 0.0105319 85 7 116
-29.9449 -34.8035 0.00851757 79 16 107
-30.0113 -30.6894 0.00736812 57 17 80
-29.873 -39.1908 0.0105085 97 3 125
-29.7384 -47.7644 0.0080251 120 5 152
-27.3762 -32.0366 0.00715396 62 20 84
-27.1045 -48.5752 0.00586678 118 11 150
-27.4431 -27.4477 0.00689505 105 94 104
-27.2386 -40.8189 0.00941132 89 5 117
-27.1731 -45.0648 0.00922428 104 5 132
-27.3113 -36.2916 0.00977408 72 14 101
-27.1742 -45.2664 0.00789262 105 4 132
-27.1091 -48.3717 0.00671033 118 9 150
-27.3768 -32.3766 0.00826695 65 19 84
-27.4456 -28.1921 0.00708525 102 90 103
-27.3077 -36.7615 0.0104879 73 13 103
-27.2439 -40.8804 0.010522 89 5 117
-27.5764 -47.6971 0.006894 119 6 150
-27.7789 -33.7919 0.00869894 69 16 94
-27.7131 -38.0444 0.00978454 85 8 111
-27.6458 -43.4427 0.0091985 99 5 129
-27.8492 -29.5414 0.00735282 54 25 73
-52.0815 -49.1167 0.00979117 98 33 91
-27.3765 -39.5348 0.0113365 84 9 113
-27.3082 -43.918 0.00773117 100 6 130
-27.5126 -30.6846 0.00714736 58 21 78
-27.4432 -35.0779 0.0098904 69 16 96
-27.2422 -48.3056 0.00731229 120 8 152
-27.5822 -30.6889 0.00739244 59 21 78
-27.3796 -44.0532 0.00762105 103 5 128
-27.4444 -39.1922 0.00906096 83 8 113
-27.5131 -34.9365 0.0098983 68 15 94
-27.4412 -43.6502 0.00881583 100 4 127
-27.3791 -48.2387 0.00675275 120 7 151
-27.5178 -39.3974 0.0101737 84 6 116
-27.5838 -34.8745 0.0106242 69 14 96
-27.6457 -30.6222 0.00811716 56 22 77
-28.9982 -46.0789 0.00859943 114 6 144
-29.0708 -41.7585 0.00835065 99 6 124
-29.1316 -37.5078 0.00881828 84 9 114
-29.2662 -29.0006 0.0066184 91 69 103
-29.2003 -33.2536 0.00956325 70 16 99
-28.9292 -50.3316 0.00862142 220 139 222
-53.2986 -49.6594 0.00695452 155 94 138
-28.7304 -38.1145 0.00916597 88 8 119
-28.662 -42.4993 0.009985 100 6 129
-28.8618 -29.81 0.0077016 70 36 86
-28.7943 -34.2016 0.009796 73 15 100
-28.5951 -46.8884 0.00851924 114 6 148
-29.1991 -42.232 0.00884599 101 6 126
-29.4035 -28.7302 0.00703287 96 76 104
-29.3388 -33.1178 0.00890318 69 15 98
-29.2649 -37.8426 0.00905125 90 8 118
-29.1343 -46.3491 0.00874348 115 6 149
-29.1993 -46.4848 0.0074686 116 6 151
-29.4703 -28.8666 0.00701757 97 72 105
-29.4019 -33.1184 0.00860999 68 15 97
-29.337 -37.3711 0.00938407 84 10 115
-29.2673 -42.23 0.0102386 100 6 127
-29.2686 -42.1648 0.00900375 100 6 126
-29.3355 -37.4384 0.00966118 85 10 115
-29.4003 -33.0515 0.00822382 68 15 96
-29.1347 -50.6679 0.00704339 217 69 224
-29.4681 -28.9328 0.00728613 96 71 103
-41.0822 -47.0932 0.0114275 124 13 143
-29.6706 -37.1716 0.00950955 84 9 114
-29.7398 -32.7808 0.00787962 68 16 93
-29.8054 -28.393 0.00671289 94 75 102
-29.6049 -41.5588 0.0107078 96 5 125
-29.5365 -46.0107 0.00900487 114 6 144
-29.537 -33.4509 0.00679053 73 15 100
-29.4025 -41.9577 0.00917136 103 9 131
-29.4716 -37.8416 0.00933152 87 9 119
-29.6045 -29.2715 0.00660134 89 63 101
-29.2699 -50.5322 0.00714028 246 138 248
-29.6734 -28.5966 0.00574049 96 76 103
-29.4732 -41.6918 0.0101768 97 6 125
-29.6044 -32.8481 0.0105106 67 16 95
-29.5357 -37.4381 0.00895831 85 10 115
-29.4005 -46.2136 0.00922893 114 5 147
-29.3367 -50.4674 0.00721265 255 168 255
-35.2759 -44.3289 0.010874 106 5 133
-35.334 -39.9255 0.0138064 88 26 106
-29.4671 -46.1465 0.00865706 114 6 145
-29.5378 -41.8934 0.00896018 100 8 129
-29.6013 -37.0321 0.00967692 86 9 115
-29.6731 -32.7807 0.00830034 67 16 93
-29.7408 -28.5298 0.00604633 95 75 102
-29.4019 -50.3991 0.00862097 255 166 255
-29.6058 -41.4865 0.00919249 96 5 125
-29.6718 -37.2375 0.0109838 84 9 114
-29.8075 -28.4609 0.00653545 94 75 102
-29.7417 -32.7149 0.00918112 68 16 91
-29.4729 -50.3342 0.00701628 208 117 214
-29.9435 -45.6063 0.00808472 114 5 146
-30.0072 -41.4873 0.0103718 97 5 122
-30.0785 -37.1 0.00977341 88 9 119
-29.8734 -49.9926 0.00800426 133 14 154
-30.2115 -28.5277 0.00602203 94 73 103
-30.1452 -32.9133 0.00768356 69 16 96
-30.1446 -36.4936 0.00784431 86 11 114
-30.2136 -32.2417 0.00757021 64 17 89
-30.0803 -41.0842 0.0098325 96 7 123
-30.0103 -45.3355 0.0105205 113 6 146
-30.2782 -27.7189 0.00593695 91 71 99
-29.9434 -49.8572 0.00812871 138 9 159
-30.6844 -32.3068 0.00651697 67 17 90
-30.6183 -36.3554 0.00878997 86 11 115
-30.7523 -28.0542 0.00597328 91 70 101
-30.5522 -40.6127 0.011144 96 5 126
-30.4844 -45.1344 0.0101119 115 6 147
-30.4154 -49.3844 0.00872552 135 6 165
-30.5506 -45.0619 0.00903777 115 6 147
-30.6205 -40.8155 0.00929777 96 5 126
-30.8199 -27.987 0.00557418 90 69 100
-30.7519 -32.2381 0.00696878 67 17 90
-30.6868 -36.4911 0.00977337 86 11 114
-30.485 -49.3191 0.00870999 132 6 163
-45.5311 -43.445 0.0115474 105 16 108
-45.468 -47.4947 0.0101276 118 24 120
-30.8909 -44.5954 0.00935035 116 6 139
-31.0892 -30.8255 0.00679867 61 19 83
-31.0212 -35.2129 0.00877896 77 16 105
-30.9563 -39.5992 0.0105738 94 6 122
-30.8206 -48.9815 0.00879162 127 9 158
-31.4259 -31.5638 0.00643825 62 15 84
-31.2932 -40.3419 0.00971914 95 6 122
-31.2248 -44.5903 0.00932223 113 5 143
-31.3589 -35.8178 0.00916715 84 12 110
-31.157 -48.6479 0.00898349 125 7 156
-51.2666 -47.6343 0.0101873 252 187 253
-46.2796 -45.6001 0.0112377 114 16 115
-21.5031 -27.6524 0.00862068 135 136 119
-31.3597 -40.0714 0.00945899 91 6 120
-31.4949 -29.8794 0.00636811 79 51 98
-31.4293 -35.6821 0.00858482 86 12 111
-31.2273 -48.5767 0.00880983 122 6 155
-31.5643 -29.8087 0.00562224 81 53 97
-31.4934 -34.2002 0.00842136 75 15 99
-31.4312 -40.004 0.0102021 91 6 120
-31.3603 -44.394 0.00976372 109 7 140
-31.5626 -34.3989 0.00782228 75 13 101
