ply
format ascii 1.0
comment Created by Open3D
element vertex 1276
property double x
property double y
property double z
property uchar red
property uchar green
property uchar blue
end_header
-53.8385 -39.9996 0.0114377 81 27 79
-53.9063 -35.4113 0.0125475 64 32 71
-53.9763 -31.1561 0.011026 61 36 66
-54.0436 -26.6382 0.0109833 57 39 63
-54.1155 -22.3772 0.0118567 55 42 62
-54.1741 -12.4039 0.00852985 215 105 252
-53.7743 -44.2574 0.0103371 87 22 80
-37.6363 -51.6119 0.010302 92 4 106
-37.7749 -42.7715 0.0118573 72 16 79
-37.7026 -47.0218 0.00990288 79 8 88
-52.0154 -51.0744 0.00744045 74 15 81
-52.4167 -25.2135 0.0113583 55 41 66
-52.498 -20.8286 0.0108293 213 130 234
-52.5573 -15.8371 0.00957881 168 73 215
-52.293 -33.9973 0.0122874 63 33 67
-52.1509 -42.2934 0.0117908 80 25 80
-52.0822 -46.6896 0.00906834 87 16 84
-46.2116 -51.3448 0.00947226 70 19 75
-46.3447 -43.0354 0.0124234 79 17 81
-46.2748 -46.9545 0.00920856 91 18 94
-44.1906 -45.4671 0.0131609 83 18 84
-44.1154 -49.9283 0.00953053 95 11 99
-46.6153 -50.397 0.00971964 80 15 79
-46.6865 -46.0043 0.0114973 91 17 96
-46.7528 -41.8968 0.0116445 73 22 81
-40.8743 -51.8182 0.00904943 100 3 106
-40.9457 -47.3621 0.00935932 85 10 95
-37.5643 -48.3079 0.00974758 82 7 92
-37.6429 -44.0525 0.011491 73 13 85
-46.0708 -43.9968 0.0133289 81 16 87
-46.0064 -47.7665 0.0115724 85 17 88
-45.9427 -52.0191 0.00769679 81 0 76
-38.1729 -44.3209 0.0125447 75 11 85
-38.1151 -48.5751 0.00864002 83 7 95
-52.6202 -47.0943 0.00973673 82 15 82
-52.7577 -38.3123 0.0138642 73 30 73
-52.963 -25.6355 0.0155778 55 40 63
-52.6896 -42.7084 0.00996312 85 26 84
-53.0937 -16.2468 0.01174 213 91 254
-53.1591 -11.849 0.00988496 174 116 218
-52.8275 -34.4067 0.0118652 62 32 68
-52.5566 -51.4762 0.00679453 77 17 81
-53.5698 -47.8343 0.0100879 76 18 76
-53.7638 -35.6809 0.0114794 66 34 71
-53.8362 -31.2998 0.0131146 60 36 68
-53.8992 -26.8378 0.0135621 58 40 64
-53.9629 -22.4496 0.0114383 55 42 63
-54.1699 -21.0996 0.0110667 54 39 62
-54.0323 -18.0586 0.0108289 155 35 199
-54.2416 -16.7165 0.00907522 114 3 157
-54.1063 -13.6827 0.0111704 192 85 227
-54.3098 -12.3272 0.00934961 217 105 252
-53.7074 -40.0637 0.0121733 80 26 78
-53.6312 -44.4571 0.00933237 87 21 84
-41.2177 -44.3892 0.0100302 80 14 85
-54.5131 -15.5695 0.0110147 67 16 108
-53.8345 -49.3873 0.00767109 75 20 75
-54.1776 -37.0303 0.012294 71 33 72
-54.2431 -32.6414 0.0121813 59 36 65
-54.1064 -32.3078 0.013305 61 34 67
-54.3656 -23.8762 0.0121721 55 41 64
-54.4481 -19.9515 0.0119096 50 41 60
-37.4359 -42.7761 0.0117186 73 16 78
-37.3663 -46.8162 0.0122685 80 9 89
-37.2974 -51.0734 0.00879391 92 2 102
-52.2833 -43.7184 0.00990489 90 24 88
-52.4147 -34.9343 0.0129525 63 31 68
-52.4966 -30.547 0.0128658 57 34 62
-52.5541 -25.5549 0.013013 55 41 65
-52.6212 -21.167 0.0123795 54 26 66
-52.6942 -16.7798 0.0112842 130 14 175
-52.7596 -12.3936 0.0101486 226 149 251
-52.3551 -39.3288 0.00891996 73 25 73
-52.2133 -47.6304 0.00785652 81 16 80
-44.1172 -50.9378 0.00916979 87 8 89
-44.1827 -46.614 0.0115518 85 15 88
-39.1885 -48.9771 0.0110533 84 4 92
-39.2554 -44.7214 0.0118988 75 12 83
-53.4387 -34.7382 0.0133832 64 32 71
-53.1635 -51.8171 0.00623577 80 0 78
-53.3025 -43.0318 0.00947941 93 30 85
-53.5101 -30.3494 0.0124569 60 37 65
-53.5548 -25.9646 0.0129574 56 41 64
-53.7721 -12.1876 0.0102749 217 107 254
-53.3635 -39.1204 0.00961764 75 27 75
-53.2293 -47.4243 0.00843369 80 16 77
-53.5027 -11.3851 0.00919136 206 127 242
-53.1675 -32.9784 0.0149461 63 35 73
-53.094 -37.2324 0.013524 70 34 72
-52.8945 -52.2186 0.00731908 230 81 225
-52.96 -47.6998 0.00874237 80 18 78
-53.0296 -43.4385 0.0120552 89 23 84
-53.231 -28.4643 0.012259 56 36 61
-53.362 -20.1583 0.0114012 48 3 68
-53.432 -15.9075 0.0101377 219 97 255
-53.0967 -13.1398 0.0119468 203 95 243
-52.9586 -20.0946 0.0137471 198 81 239
-52.6285 -41.8206 0.0128651 83 26 81
-52.7682 -33.3129 0.0115102 64 34 72
-52.8137 -28.593 0.0136907 57 37 63
-52.8971 -24.2066 0.0120633 54 40 63
-53.0228 -15.7056 0.0123099 157 54 204
-52.6969 -37.702 0.00941999 71 33 72
-52.5565 -46.212 0.00995589 92 16 88
-53.7643 -12.5281 0.00990718 217 105 252
-53.1618 -52.0171 0.00713513 252 104 242
-53.2295 -47.7635 0.00993563 77 18 76
-53.2997 -43.5197 0.011116 90 25 86
-53.4307 -34.4142 0.0117287 64 32 71
-53.506 -30.1405 0.0122903 60 37 66
-53.5773 -25.9109 0.0118194 56 41 64
-53.7086 -16.7877 0.00945362 153 37 196
-53.3663 -38.6511 0.00973883 73 32 74
-35.8157 -46.1511 0.0109118 79 9 93
-35.8852 -41.8969 0.00972163 66 16 77
-38.9202 -51.8825 0.00949679 93 3 100
-38.9905 -47.6288 0.0091666 83 8 91
-38.9183 -44.9395 0.0098814 80 12 85
-38.8483 -49.047 0.00859419 88 6 97
-37.0301 -44.9954 0.0134852 76 9 88
-36.9614 -49.3826 0.00820561 87 6 99
-52.1489 -43.8528 0.00958318 91 25 89
-52.2218 -39.5933 0.0142604 73 25 75
-52.5554 -18.4746 0.0126104 146 32 190
-52.2906 -35.5438 0.0110879 66 34 71
-52.3477 -31.2962 0.0115523 55 34 67
-52.6231 -14.225 0.0121733 216 151 243
-37.6402 -42.0308 0.0102619 66 22 70
-37.574 -46.282 0.00926035 81 8 89
-37.4983 -50.5364 0.00807738 86 2 98
-37.9107 -51.5448 0.00965052 93 3 103
-37.9733 -45.3408 0.0111842 78 10 87
-44.4513 -46.2808 0.0113684 87 17 89
-44.3832 -51.6858 0.00822584 86 13 92
-51.8107 -39.2617 0.0127008 76 30 79
-51.6092 -52.3541 0.00708675 199 23 170
-51.6813 -48.1026 0.00892584 79 15 76
-51.8872 -34.733 0.0121799 66 39 72
-51.9577 -30.4722 0.0114973 59 34 63
-52.0913 -22.7347 0.0113551 50 7 61
-52.1497 -18.2062 0.0124999 156 39 205
-52.2178 -13.9556 0.00899613 215 185 245
-51.7456 -43.5076 0.0110604 90 23 91
-37.9739 -45.4065 0.0111454 78 10 87
-37.9085 -51.4791 0.00782026 93 3 103
-37.906 -51.6801 0.00991113 94 3 107
-37.9734 -45.1981 0.00960995 78 10 87
-44.4612 -46.3446 0.00952154 85 17 90
-44.3875 -51.6178 0.00818323 86 13 92
-46.005 -46.4797 0.0126337 86 18 91
-46.0714 -43.105 0.010901 79 17 80
-45.9403 -50.8702 0.00844051 76 21 79
-44.4521 -46.4091 0.0118505 85 17 90
-44.3851 -51.5464 0.00828795 87 12 94
-38.8548 -47.9655 0.0132523 85 7 93
-38.9175 -43.8457 0.0101082 74 14 85
-38.7852 -52.3546 0.00810991 251 155 252
-37.7066 -46.2797 0.0107746 81 8 90
-37.7733 -41.8944 0.0103052 63 48 64
-37.6385 -50.1928 0.00837927 88 5 95
-45.4699 -51.8828 0.00883684 82 22 82
-44.4528 -50.1305 0.009407 94 12 96
-44.5143 -45.7436 0.0128773 82 16 87
-53.2285 -46.0112 0.010729 90 18 84
-53.2983 -41.7652 0.00970608 85 28 81
-53.5009 -28.3994 0.0118425 56 38 64
-53.6379 -20.6281 0.0115498 53 39 64
-53.769 -11.8561 0.00787683 217 107 255
-53.1627 -50.5355 0.00674094 71 21 74
-38.9116 -43.7193 0.0124099 74 14 86
-38.8526 -48.1031 0.00894965 88 9 96
-38.7812 -52.4902 0.00737741 253 162 254
-43.8533 -46.9529 0.0114426 89 19 92
-43.782 -51.2037 0.00854049 89 7 92
-46.7452 -42.3051 0.0115905 74 20 78
-46.6786 -46.6887 0.0106454 88 15 93
-46.6136 -51.0729 0.00821103 70 18 74
-55.5894 -49.115 0.00733145 82 24 75
-56.1356 -13.8825 0.00858383 187 102 206
-55.7221 -40.3452 0.0100867 77 26 77
-55.9988 -22.7214 0.0113379 56 42 65
-56.2004 -9.35756 0.00725677 187 132 225
-55.7921 -35.7486 0.0107595 75 39 77
-55.6635 -44.5936 0.0073317 87 18 81
-37.5061 -41.7652 0.0114853 66 40 67
-37.437 -46.0059 0.00948964 80 8 90
-37.367 -50.0657 0.00837999 80 4 92
-36.9577 -47.8345 0.0116815 80 6 91
-37.0356 -43.3098 0.0115265 73 12 81
-36.8988 -52.0836 0.00835709 99 3 103
-55.7267 -49.2525 0.00866625 81 23 72
-55.7895 -44.1223 0.00978351 88 23 81
-56.0028 -31.0984 0.0106588 62 39 68
-56.1344 -22.7906 0.0114987 56 44 64
-56.1932 -18.2609 0.00949744 52 44 67
-56.2658 -14.0204 0.008859 183 106 200
-55.861 -39.8626 0.00965479 81 29 78
-47.5566 -51.817 0.00848193 79 13 80
-47.6209 -47.4246 0.00967759 88 19 86
-47.6888 -46.7512 0.0113147 91 21 94
-53.0192 -23.2664 0.0136854 55 42 67
-52.6873 -45.2678 0.00953625 99 21 96
-52.8223 -36.1604 0.0129355 68 36 73
-52.8998 -31.7671 0.0126763 58 32 67
-52.9507 -27.6523 0.0131302 58 38 65
-53.0967 -18.5386 0.0131663 202 81 244
-53.1596 -14.1471 0.0106225 156 68 181
-52.7601 -40.8777 0.00906339 77 24 76
-52.6219 -49.3845 0.0077641 77 16 76
-40.7382 -46.1475 0.0136769 83 12 91
-40.6717 -50.5332 0.00851628 92 3 99
-38.1764 -46.2139 0.0110425 80 9 89
-38.1066 -50.4686 0.00910231 91 4 99
-41.0069 -44.5932 0.00996862 78 15 85
-40.9435 -48.9796 0.0105287 85 4 97
-41.1463 -46.3514 0.0117306 84 13 91
-41.079 -50.7319 0.0114006 95 3 102
-54.1712 -43.5121 0.0113946 90 26 86
-54.2352 -39.1356 0.0101121 80 28 77
-54.3117 -34.7365 0.010166 64 32 69
-54.3754 -30.3622 0.0127998 59 36 65
-54.4432 -26.4396 0.0131339 57 39 63
-54.5159 -22.0477 0.0106102 54 42 64
-54.5711 -17.6508 0.0105978 210 89 251
-54.6491 -13.2754 0.00823244 186 81 235
-38.179 -44.2551 0.0107996 76 13 84
-38.1145 -48.6433 0.00870299 85 6 95
-47.4283 -49.4512 0.00924941 82 15 84
-47.4863 -45.1986 0.0119092 91 19 93
-47.5547 -40.6904 0.0109506 74 26 78
-56.199 -39.3976 0.0117357 79 29 78
-56.1314 -43.7839 0.00876226 90 25 83
-56.275 -35.008 0.00986219 79 45 80
-56.3361 -28.935 0.0105999 59 39 64
-56.4043 -24.5465 0.011 56 42 65
-56.4695 -20.1622 0.00992431 51 44 62
-56.5405 -15.7765 0.00852873 153 25 190
-56.6065 -11.8552 0.0087211 56 48 72
-56.0688 -48.1698 0.0070294 84 20 77
-40.0637 -46.7523 0.0117703 85 11 94
-39.9999 -51.1413 0.00835973 92 5 102
-38.2469 -50.6654 0.00970112 89 4 98
-38.3157 -46.4127 0.00943757 80 8 90
-55.12 -9.82724 0.00856144 215 104 255
-54.6475 -40.6748 0.0115712 79 24 79
-54.7729 -31.5558 0.0105221 61 38 67
-54.8428 -27.4462 0.0108402 61 41 69
-55.0501 -13.9507 0.00893759 187 94 209
-54.5802 -45.0626 0.00839374 91 20 86
-54.1076 -51.8813 0.00659997 174 95 174
-54.5766 -26.422 0.0139793 57 39 63
-54.7139 -17.863 0.0157104 197 79 241
-54.2449 -47.6302 0.00905641 82 18 79
-54.3682 -39.1262 0.0108509 79 27 76
-54.4447 -34.9459 0.0115776 64 32 69
-54.5297 -30.5548 0.0118526 60 35 65
-54.784 -13.4772 0.0107767 190 81 232
-46.0068 -44.7229 0.0108345 84 17 88
-45.9445 -49.111 0.00863117 85 15 87
-48.9808 -39.7316 0.0125723 71 24 74
-48.9188 -43.9854 0.00951892 80 20 80
-48.8402 -48.2372 0.0108907 86 20 91
-52.6887 -49.7229 0.00849649 77 16 76
-52.7579 -45.3385 0.0110125 99 21 96
-52.964 -32.6379 0.0112076 63 35 73
-53.0289 -28.2649 0.0122614 56 38 62
-53.1653 -17.7986 0.0119235 138 27 184
-52.8947 -37.0325 0.0124066 71 33 72
-52.8292 -41.4276 0.010107 83 29 81
-45.4696 -51.5458 0.00962183 76 16 76
-40.0003 -47.3558 0.0111031 86 8 94
-39.9294 -51.4788 0.00841168 93 3 101
-52.8198 -24.0686 0.0146875 54 40 63
-52.4207 -49.4562 0.00776103 79 14 78
-52.6998 -32.3726 0.01103 60 33 68
-52.7562 -28.1217 0.0133585 56 36 64
-52.8919 -19.8134 0.0112504 212 94 255
-52.9545 -15.2946 0.0086994 63 26 93
-52.6204 -36.8955 0.010287 70 34 72
-52.5528 -41.147 0.00913054 78 26 78
-52.4896 -45.199 0.0118307 99 21 97
-46.6198 -44.1161 0.0118487 82 17 85
-46.5533 -48.4388 0.0102664 80 21 85
-52.8903 -35.1519 0.0112793 65 33 70
-53.0272 -26.3681 0.0124331 56 41 64
-53.0971 -24.0866 0.0118916 55 41 66
-53.1617 -19.6936 0.0106434 122 1 164
-53.2245 -15.294 0.00941431 158 102 201
-52.7558 -43.9844 0.00880925 96 27 90
-52.6898 -48.3724 0.00858002 86 18 91
-47.0872 -45.2676 0.0103463 90 18 94
-47.1536 -41.6381 0.0153471 75 19 78
-47.0169 -49.6549 0.00938775 84 17 86
-43.711 -46.0077 0.0107689 93 17 97
-43.6461 -50.2686 0.00970873 91 6 97
-47.1577 -41.7556 0.0136822 75 21 79
-47.0171 -49.5161 0.0133582 84 16 89
-47.0883 -45.1372 0.0099515 89 19 92
-38.3185 -48.375 0.0117473 82 7 92
-38.3826 -44.2628 0.0109793 76 13 84
-52.5539 -49.7928 0.00943023 77 16 76
-52.9528 -23.9419 0.0145937 55 41 64
-52.6197 -45.5427 0.00876053 99 21 97
-52.6848 -41.0208 0.0121357 78 26 77
-52.8223 -32.717 0.0112919 63 35 73
-52.8963 -28.4693 0.012729 57 37 62
-53.0262 -19.6809 0.0109537 150 28 189
-53.0978 -13.4727 0.0114062 197 82 229
-52.7599 -36.7585 0.0107236 69 35 72
-37.5001 -45.4001 0.0139907 78 10 87
-37.4412 -49.6567 0.0107849 82 3 92
-37.9771 -45.8001 0.0109396 80 9 89
-37.91 -51.0772 0.00880802 89 3 100
-47.2854 -41.2252 0.0118236 71 20 76
-47.2248 -45.3402 0.0147972 93 20 98
-47.151 -49.7228 0.00835737 84 16 85
-46.5474 -52.2866 0.0101073 254 136 254
-46.685 -44.5336 0.0120931 84 17 88
-46.6156 -48.9135 0.00857097 81 19 86
-55.3239 -17.2534 0.0147851 162 40 201
-55.2566 -21.6314 0.013467 52 43 64
-55.1871 -27.7097 0.0140181 60 42 66
-54.9231 -44.7946 0.0100784 91 20 86
-54.85 -49.1807 0.00781145 82 22 80
-54.9876 -40.877 0.0092208 86 32 82
-44.3883 -51.4114 0.00912824 87 10 94
-44.4499 -46.5553 0.0105438 87 19 92
-54.5766 -47.7 0.00873966 88 19 82
-54.6473 -43.4388 0.0114464 89 26 81
-54.719 -39.6605 0.0111289 79 29 78
-54.7817 -35.4176 0.0106819 70 34 72
-54.8496 -31.1592 0.0114874 58 38 66
-54.9174 -26.907 0.012466 60 40 67
-54.9836 -22.048 0.0105028 53 44 65
-55.0508 -17.7893 0.0101461 208 87 247
-55.1193 -13.5427 0.0102722 195 89 237
-53.5695 -12.2599 0.0119983 217 107 254
-53.5054 -16.5129 0.0108974 217 103 255
-53.1595 -38.6557 0.0129967 72 30 73
-53.2353 -34.1301 0.0133369 63 33 69
-53.2842 -29.8854 0.0122057 59 36 65
-53.4257 -21.0268 0.0113686 53 39 64
-53.0946 -42.9076 0.00916014 88 28 82
-53.5014 -48.7108 0.00751143 80 21 77
-53.6359 -39.3316 0.0123234 74 26 74
-53.7041 -34.9433 0.0120882 64 32 71
-53.7681 -30.5466 0.0109535 59 36 65
-54.0347 -13.4745 0.00866337 191 85 233
-52.4878 -51.0752 0.00735376 75 17 78
-52.5545 -46.0791 0.0105436 94 18 90
-52.7622 -32.9115 0.0122208 63 35 73
-52.9599 -20.2257 0.011456 117 9 154
-53.0943 -13.0032 0.0095864 203 100 244
-52.6221 -41.6893 0.00926755 84 27 82
-46.6191 -43.4477 0.0116848 81 19 84
-46.5495 -49.1147 0.0113827 83 18 86
-54.3222 -24.2901 0.0137364 56 42 65
-54.1107 -36.5645 0.0115926 70 34 72
-54.1717 -32.7816 0.0114214 60 35 67
-54.3779 -20.029 0.00959495 51 42 61
-54.4442 -15.1605 0.00996578 157 77 190
-54.5127 -10.9079 0.00732464 219 105 253
-54.3707 -24.2688 0.0137161 57 43 66
-53.9105 -45.0675 0.00951732 92 21 87
-53.9638 -40.6793 0.0104659 79 24 80
-54.2548 -32.783 0.0114376 61 35 67
-54.3078 -28.6537 0.0110774 58 38 65
-54.4473 -19.5555 0.0105858 57 43 69
-54.505 -15.1657 0.0124001 194 125 226
-54.5783 -11.0432 0.00719697 220 106 254
-52.4145 -48.7803 0.00805527 87 15 88
-52.5661 -39.6634 0.0102836 74 26 74
-52.6184 -35.4214 0.0122433 67 33 70
-52.698 -31.1628 0.0127528 56 32 64
-52.7523 -26.9016 0.0112291 56 38 62
-52.8239 -22.0449 0.012013 55 41 66
-52.8978 -17.8038 0.0117345 208 90 254
-52.9639 -13.5392 0.00875641 193 80 222
-54.2984 -23.1939 0.0133434 55 41 64
-54.0426 -41.893 0.0110056 86 27 81
-54.1793 -31.691 0.0119721 59 33 68
-54.2383 -27.4486 0.012072 58 38 66
-54.3806 -18.9467 0.0101718 122 5 145
-54.4475 -14.0812 0.00902477 169 89 202
-53.9049 -50.3988 0.0068344 71 23 71
-37.905 -47.1606 0.00897386 79 7 89
-37.839 -51.5469 0.00798296 92 3 103
-52.7517 -35.4132 0.0117131 67 33 70
-52.8139 -30.8348 0.0118135 55 34 65
-52.8935 -26.5676 0.0127237 54 39 62
-52.9487 -22.0439 0.0110859 54 40 63
-53.0292 -17.804 0.0104744 214 98 255
-53.0971 -15.3639 0.0111727 160 105 199
-52.694 -39.6615 0.00969483 74 24 73
-52.5549 -48.441 0.00758193 88 18 91
-54.7802 -10.1697 0.00898948 211 101 248
-54.2469 -45.3977 0.00945608 90 20 83
-54.3722 -36.6383 0.0107378 69 35 70
-54.4444 -32.048 0.0115587 61 36 66
-54.5042 -27.7827 0.0117524 58 39 67
-54.5737 -23.2571 0.0114936 56 42 65
-54.6451 -19.0113 0.0120603 53 3 72
-54.1721 -49.6534 0.00821918 79 22 77
-54.8527 -42.7053 0.00977292 82 28 78
-54.923 -38.3146 0.00950994 80 35 78
-55.0618 -30.0177 0.0124795 58 38 66
-55.1228 -25.637 0.0127791 56 41 64
-55.1843 -21.2384 0.0123499 51 42 63
-55.3168 -10.7739 0.00812435 220 104 255
-54.7772 -47.0949 0.00737821 88 17 85
-54.7148 -51.4789 0.00534767 71 46 68
-54.3797 -33.6548 0.0116254 63 33 69
-54.4418 -29.606 0.0129898 59 36 65
-54.5149 -25.3502 0.0106567 56 41 64
-54.5792 -20.833 0.0101583 54 41 63
-54.651 -16.5817 0.011197 157 47 198
-54.7133 -12.531 0.00756856 80 20 116
-55.5911 -49.521 0.00742333 82 22 74
-55.9337 -28.7279 0.0121459 56 40 66
-56.1271 -15.3641 0.00874022 58 40 82
-55.7985 -37.2297 0.0110476 71 35 73
-55.6593 -45.2676 0.00735453 83 17 79
-53.1638 -24.3336 0.0152682 55 41 64
-53.2317 -19.8314 0.0137428 222 97 255
-52.7598 -51.8812 0.00642041 146 50 148
-52.8279 -47.8347 0.00898788 79 18 77
-52.9559 -39.0627 0.0117983 73 27 73
-53.0284 -34.8044 0.0117446 63 31 68
-53.0956 -28.5967 0.0118154 57 37 64
-53.2979 -15.5678 0.0106205 204 92 252
-52.8916 -43.5817 0.00833057 90 22 85
-52.8248 -46.4154 0.0105558 90 17 88
-52.962 -37.9048 0.0120372 73 32 72
-53.0981 -29.8621 0.0113768 59 36 64
-53.1552 -25.4902 0.0112248 55 40 61
-53.227 -21.3737 0.0112356 53 39 64
-53.2961 -16.9829 0.0104834 210 90 254
-53.3678 -12.2643 0.00817846 215 110 254
-37.5633 -41.4124 0.0110826 64 45 65
-37.5011 -45.6665 0.00936849 78 10 87
-37.4334 -49.9263 0.00915512 80 4 92
-58.6298 -49.926 0.00490438 101 57 80
-58.7661 -41.3543 0.00836047 87 33 85
-58.8363 -37.0985 0.0104706 67 33 70
-58.965 -28.5944 0.00998 71 53 77
-59.0385 -24.2731 0.0118218 58 50 73
-59.1007 -20.0232 0.00867382 63 51 71
-59.2385 -11.5164 0.00693002 53 51 72
-59.3045 -7.19883 0.00519859 39 55 68
-53.706 -49.9253 0.00812007 69 21 71
-53.7709 -45.8066 0.0103162 87 17 80
-53.8396 -41.4203 0.00892929 85 26 82
-53.9097 -37.2338 0.0127338 71 33 72
-54.0291 -28.7317 0.0120776 57 37 64
-54.0936 -24.3361 0.0125532 56 42 65
-54.4478 -41.0804 0.0113099 89 30 86
-54.5791 -32.5843 0.0124691 59 35 67
-54.6442 -28.3231 0.012159 58 40 64
-54.7293 -24.5462 0.0123906 56 42 65
-54.7851 -20.2989 0.0111912 53 41 63
-54.8481 -16.04 0.00927605 144 65 186
-54.3759 -45.9454 0.00851351 85 16 79
-54.3769 -42.2301 0.0114782 86 28 79
-54.4425 -38.3102 0.0119944 81 38 81
-54.5115 -33.9257 0.0132015 63 33 69
-54.5898 -29.5405 0.0126161 59 36 65
-54.7172 -21.2427 0.00981733 53 41 63
-54.8534 -12.4649 0.00885622 43 0 76
-54.307 -46.6204 0.00896491 86 15 81
-54.2403 -51.0063 0.00661877 73 25 74
-53.7028 -22.6561 0.0128503 55 41 64
-53.5623 -30.6947 0.0109936 59 36 65
-53.6377 -27.038 0.0121384 58 40 64
-53.7746 -18.5437 0.0103269 213 93 253
-53.8348 -14.1471 0.010786 169 67 192
-53.4385 -39.1929 0.00958065 75 27 75
-53.2995 -48.3074 0.00792594 83 19 79
-58.5581 -30.3457 0.0124256 65 42 70
-58.2914 -49.5882 0.00600674 94 56 77
-58.9002 -9.15558 0.00618814 48 54 66
-58.4262 -41.0834 0.00930322 87 30 81
-58.4988 -34.7338 0.0118126 69 39 75
-58.7012 -21.8562 0.0119348 58 49 68
-58.7603 -17.6602 0.00861184 54 49 69
-58.8319 -13.2755 0.00793332 206 98 246
-56.067 -43.7211 0.00900627 89 26 81
-56.1324 -39.3281 0.00932905 77 27 76
-56.1983 -35.2153 0.0113649 73 41 78
-56.2773 -30.8214 0.0121588 63 40 68
-56.3328 -24.4734 0.0119904 57 41 67
-56.4747 -15.9752 0.00893817 216 84 255
-42.2903 -50.802 0.0093728 96 5 105
-42.3649 -46.4147 0.0110045 85 14 90
-57.0795 -12.4653 0.00856325 204 120 241
-56.5364 -47.6952 0.00665991 93 19 82
-56.6796 -39.3919 0.00851282 76 28 78
-56.7381 -34.8799 0.0098183 77 43 78
-56.8747 -25.4955 0.0102101 57 43 66
-56.9351 -21.236 0.0106117 53 44 65
-57.0111 -16.717 0.0104296 195 106 222
-57.1438 -8.41113 0.00645449 53 56 73
-53.9042 -17.1175 0.0140663 115 0 160
-53.9691 -12.7349 0.00977358 206 100 250
-53.3651 -51.2762 0.00644897 76 23 75
-53.5006 -42.5033 0.0100751 86 25 84
-53.571 -38.115 0.00973214 74 32 72
-53.6345 -34.7366 0.0125745 64 32 71
-53.71 -30.3455 0.0121576 60 37 65
-53.7687 -25.9597 0.0135786 56 41 64
-53.8345 -21.5625 0.0119374 52 38 63
-53.4274 -46.8889 0.00750401 81 18 81
-52.8238 -45.6023 0.0115779 98 20 95
-52.7563 -49.7905 0.00735457 76 17 75
-52.8877 -41.221 0.0126379 84 30 82
-53.2278 -17.8626 0.0128326 161 45 204
-53.0267 -32.7053 0.0119191 63 36 71
-53.3015 -13.48 0.0096009 199 85 233
-52.9595 -37.1037 0.0112476 70 34 72
-59.4386 -35.4179 0.0116947 69 26 71
-59.5064 -31.1647 0.00972334 70 41 69
-59.5717 -24.6846 0.0102541 55 32 58
-59.6404 -20.4259 0.00983073 162 132 160
-59.7066 -16.1746 0.00759221 131 112 134
-59.7754 -11.9223 0.00719988 144 120 142
-59.8457 -7.60146 0.00513404 140 144 156
-59.2393 -48.2392 0.005014 107 40 83
-37.0342 -42.7772 0.0147982 71 14 82
-36.9001 -51.5474 0.00968512 86 2 96
-36.9552 -47.2873 0.0108106 81 7 91
-54.373 -36.3561 0.0110222 70 34 72
-54.4454 -32.2966 0.0136371 60 35 65
-54.5134 -28.0614 0.0118969 58 40 64
-54.5773 -23.5346 0.0114779 55 41 64
-54.7158 -14.1502 0.00926799 176 89 202
-38.5723 -44.3281 0.0120031 78 13 85
-38.5153 -48.5774 0.0103683 84 6 92
-45.536 -45.5411 0.0137371 85 17 90
-45.4687 -45.3962 0.00958347 85 17 90
-45.3972 -49.7876 0.0085578 83 13 86
-46.4042 -46.1497 0.0121838 90 18 92
-46.347 -50.4001 0.0105775 82 16 83
-46.4824 -41.8916 0.0103498 73 21 83
-55.2668 -30.8909 0.0174655 62 39 68
-55.4593 -18.1335 0.0117593 204 119 238
-54.9832 -48.5093 0.00788004 83 19 80
-55.0565 -44.2511 0.0107022 88 22 83
-55.1147 -40.006 0.00879085 79 28 78
-55.1963 -35.742 0.011015 68 34 71
-55.3319 -26.6428 0.0126116 62 44 68
-55.3942 -22.3857 0.0112851 58 44 67
-55.323 -50.9352 0.00618475 78 31 71
-55.3929 -46.6883 0.00781361 88 17 85
-55.5254 -37.5687 0.00969515 71 35 73
-55.6705 -29.0723 0.0127895 58 38 65
-55.7358 -24.821 0.0104299 57 42 65
-55.7966 -21.0348 0.0108031 51 42 63
-55.9312 -12.5268 0.00773746 36 3 56
-35.817 -48.1076 0.0108196 82 7 94
-35.8847 -43.716 0.011701 75 12 83
-38.3075 -48.9798 0.00967346 87 7 96
-38.3878 -44.7348 0.011169 79 13 85
-53.3726 -34.1219 0.0139549 62 32 68
-53.2286 -42.7046 0.0096997 89 28 85
-53.4317 -29.744 0.0127905 59 36 64
-53.5131 -25.6315 0.0113955 55 41 64
-53.6365 -17.0562 0.0103355 212 96 255
-53.7044 -12.6632 0.0083523 215 102 252
-53.3053 -38.3177 0.0105663 72 30 68
-53.1667 -46.8172 0.0109902 83 17 81
-58.8324 -36.0932 0.0106024 71 35 73
-58.9695 -27.3141 0.0107132 62 47 70
-59.0366 -23.3975 0.0124703 58 46 68
-59.1063 -19.0148 0.00811903 53 52 70
-59.168 -14.6234 0.00772577 148 41 171
-59.2378 -10.2362 0.00746325 51 64 73
-58.6323 -48.7772 0.00502368 93 56 74
-58.4367 -32.5806 0.0121134 66 42 74
-58.6304 -17.1895 0.00911742 53 50 71
-58.2253 -45.7408 0.00729195 91 20 82
-58.3578 -36.9683 0.00990047 69 35 72
-58.4939 -25.9588 0.0110505 59 46 66
-58.5668 -21.5741 0.00932406 55 46 67
-48.1709 -49.4471 0.00991852 80 15 79
-48.2358 -45.5312 0.0105035 86 19 86
-48.304 -41.1511 0.0119545 71 20 77
-38.8507 -49.8582 0.00999085 84 8 98
-38.9203 -45.7434 0.0127139 80 9 89
-40.6782 -45.8068 0.0139031 81 13 88
-40.6065 -50.8005 0.0109946 95 3 101
-55.4611 -30.3533 0.0115155 60 40 68
-55.5246 -25.8885 0.0107991 57 43 66
-55.5945 -21.5124 0.0110875 52 43 64
-55.663 -17.1179 0.0100796 210 88 251
-55.7247 -12.7353 0.00940801 207 142 224
-55.7957 -9.35597 0.00779885 203 143 241
-55.257 -43.5141 0.0102563 91 28 85
-55.1856 -49.0479 0.00660597 82 21 81
-44.0527 -46.0108 0.0120398 85 16 90
-43.9836 -50.2623 0.00983575 93 7 98
-59.5046 -41.3556 0.00714893 83 5 57
-59.6358 -31.7066 0.00944393 138 101 132
-59.7107 -27.5847 0.0108061 156 121 151
-59.3726 -49.8582 0.00525411 178 79 144
-51.955 -40.4701 0.0108475 75 27 77
-52.0123 -34.2768 0.0107932 63 36 72
-52.08 -30.009 0.0119468 56 37 66
-52.2169 -21.2297 0.0130745 56 4 76
-52.2835 -17.1881 0.0115035 140 30 186
-52.3502 -12.9338 0.00843837 224 193 252
-51.8815 -44.7245 0.0104575 92 22 91
-51.8103 -49.253 0.00740703 83 13 83
-44.8597 -52.2213 0.00878189 254 138 252
-44.9949 -44.4629 0.0126917 80 17 84
-44.9254 -47.8349 0.00914901 88 18 91
-59.9806 -6.12041 0.0105131 122 129 137
-59.7155 -23.1908 0.0125165 102 75 92
-59.3706 -45.6045 0.00573316 117 17 89
-59.4407 -41.3561 0.00823549 96 25 81
-59.7792 -18.944 0.00873319 140 116 140
-59.847 -14.6239 0.00680448 136 115 146
-59.9125 -10.3721 0.00601754 130 124 136
-42.2933 -46.6151 0.0124259 85 14 88
-42.2286 -52.4201 0.00909801 255 150 254
-57.0076 -50.939 0.00544899 98 56 76
-57.1459 -42.3675 0.0087255 94 31 88
-57.2798 -33.856 0.00990827 67 38 69
-57.4198 -23.1373 0.00973826 59 45 68
-57.4817 -18.7422 0.0104634 56 47 65
-57.5535 -14.6283 0.00810156 148 39 180
-57.6174 -10.2352 0.008773 54 53 71
-49.2487 -41.6844 0.0125086 78 22 80
-49.1755 -45.9442 0.00888957 87 20 86
-49.1131 -50.4651 0.00920959 77 16 77
-53.3745 -38.1733 0.0106419 72 30 70
-53.4317 -33.7986 0.0123847 63 33 69
-53.4963 -29.6902 0.0128491 59 36 64
-53.6359 -21.6374 0.011763 52 38 63
-53.7043 -17.2588 0.00992537 126 10 173
-53.3009 -42.9013 0.00901275 91 30 87
-53.2297 -47.2985 0.00798745 80 15 79
-53.1651 -51.4079 0.00600475 71 24 78
-58.0865 -37.5064 0.013129 68 30 69
-57.8871 -50.3304 0.00530262 97 59 80
-57.9519 -46.2822 0.00845703 100 25 90
-58.2212 -29.208 0.0117797 60 40 67
-58.2914 -24.9444 0.0118079 56 43 63
-58.4257 -16.1738 0.00864369 63 53 78
-51.2714 -44.1962 0.0114158 91 25 89
-51.679 -18.8722 0.0133986 122 6 165
-51.5417 -27.6521 0.0141868 50 62 60
-51.4799 -32.0321 0.0152337 58 66 68
-51.4069 -35.4128 0.0174089 60 63 71
-51.3366 -39.8045 0.0108452 73 24 77
-51.7435 -14.4152 0.00925262 215 186 242
-51.2052 -48.5772 0.00786601 79 14 78
-43.9156 -46.0065 0.00973612 87 16 92
-43.847 -51.1378 0.00843338 90 8 93
-43.6423 -45.2023 0.0098505 82 16 87
-43.5766 -49.386 0.00898562 90 8 93
-53.9741 -16.0493 0.0111709 153 68 195
-53.8952 -20.2912 0.0127457 54 39 66
-53.7696 -29.14 0.0161693 57 37 65
-53.5673 -41.4216 0.0105342 87 28 82
-53.8417 -24.8855 0.0123183 54 41 61
-53.6949 -33.6546 0.0126339 61 34 69
-53.6316 -37.9043 0.0110443 71 32 71
-53.4292 -50.1932 0.00750838 71 23 73
-54.6439 -23.9927 0.0129702 56 42 65
-54.5761 -28.264 0.0139348 58 40 64
-54.3843 -41.6226 0.0102995 87 28 84
-54.4511 -36.7625 0.0111573 69 35 72
-54.5052 -32.5208 0.0113649 59 36 65
-54.726 -20.2266 0.011539 53 41 63
-54.7737 -15.9697 0.00913069 143 68 186
-54.8539 -11.7206 0.00818651 219 107 254
-54.106 -49.5214 0.00661943 78 20 77
-54.242 -50.1304 0.00662269 76 24 73
-52.2911 -43.31 0.0110963 89 25 86
-52.2195 -48.0311 0.00833969 81 16 80
-52.3451 -38.9259 0.0109281 76 30 77
-52.4166 -34.8213 0.0106807 63 31 68
-52.5603 -25.6994 0.0134786 54 40 63
-52.6185 -21.3096 0.0114998 60 22 69
-52.6895 -17.193 0.0100663 183 67 229
-52.7526 -12.7965 0.0111328 184 95 221
-52.7543 -12.6648 0.00969359 192 104 225
-52.3429 -39.0602 0.0115495 76 28 76
-52.41 -34.6811 0.0113487 63 31 68
-52.4827 -30.2872 0.0114437 59 35 61
-52.5523 -25.8435 0.0122313 55 40 64
-52.6155 -21.4423 0.0115129 51 20 54
-52.6989 -17.0583 0.0121803 205 89 250
-52.2907 -43.4404 0.00914141 89 25 86
-52.1493 -52.2892 0.00596592 178 8 166
-52.6972 -19.347 0.013337 197 77 237
-52.5476 -27.8531 0.0143938 56 37 65
-52.2206 -50.1942 0.0075981 74 19 77
-52.2872 -45.4684 0.00903496 99 21 97
-52.4226 -36.9611 0.0102003 70 34 72
-52.6262 -23.4684 0.0119235 59 43 72
-52.7578 -14.9669 0.00972639 59 19 90
-52.5036 -32.5845 0.0104427 60 32 70
-52.2911 -44.5226 0.0109384 92 23 90
-52.4228 -35.7533 0.0146376 65 35 69
-52.4998 -31.3526 0.0127637 57 33 67
-52.573 -26.9145 0.0121152 57 37 64
-52.6179 -22.5172 0.0119886 58 45 74
-52.7034 -18.1399 0.0102581 129 12 178
-52.7593 -13.7504 0.00969174 166 63 196
-52.3521 -40.1371 0.0103601 74 26 74
-52.2155 -48.9815 0.00737029 86 14 88
-43.9196 -45.8765 0.0117149 86 17 90
-43.8464 -51.2755 0.0112266 89 7 92
-43.9182 -45.4045 0.0116939 83 16 85
-43.8464 -49.5926 0.0107053 94 12 96
-55.7932 -33.8538 0.0143637 64 35 66
-55.8586 -29.6139 0.0139737 60 40 67
-55.5241 -50.9377 0.00561998 87 51 77
-55.5912 -46.6866 0.0085264 89 18 86
-55.7297 -37.9006 0.0111074 72 34 73
-55.9987 -20.8308 0.0109398 51 42 63
-56.1346 -12.5292 0.00851317 35 2 60
-55.6642 -42.1643 0.0106357 86 27 81
-55.7915 -25.2169 0.0128216 56 42 65
-55.3907 -50.5983 0.0069216 84 26 74
-55.4595 -46.3503 0.00771951 88 16 82
-55.5884 -38.0428 0.0106746 73 32 72
-55.6677 -33.5168 0.0130178 62 37 67
-55.7289 -29.2685 0.0116981 60 40 67
-55.8618 -20.9704 0.0104781 51 42 63
-55.9281 -16.4464 0.00981084 225 93 255
-55.9895 -12.1924 0.0082613 54 46 85
-58.2937 -45.945 0.00731713 92 24 85
-58.3584 -41.5583 0.00815992 91 30 87
-58.4949 -38.6521 0.00972934 75 35 72
-58.5601 -34.267 0.00966108 72 42 78
-58.6291 -29.8753 0.0113869 67 44 72
-58.8325 -17.1909 0.00968615 51 50 68
-58.9022 -12.7996 0.00651866 45 21 71
-58.9689 -8.41397 0.00546172 45 57 69
-58.2252 -50.3311 0.00493976 98 56 76
-44.7961 -43.3134 0.0133403 77 19 78
-44.7248 -47.564 0.00915338 86 16 89
-44.6571 -51.8823 0.00984667 77 13 82
-54.9219 -43.9794 0.0116951 89 23 84
-54.8486 -48.3743 0.00889615 84 20 81
-54.9868 -39.5318 0.0090438 78 28 77
-55.0517 -35.1457 0.00982402 70 34 72
-55.1297 -30.7482 0.0117399 61 38 67
-55.1908 -26.3686 0.0105462 55 41 64
-55.2578 -22.9926 0.0114525 56 42 65
-55.3196 -18.6069 0.00950659 59 40 72
-55.3945 -14.2222 0.00956937 154 88 176
-55.4558 -9.83159 0.00748099 208 105 248
-58.0884 -45.6048 0.00809981 89 19 81
-58.1545 -41.3531 0.00824109 91 30 87
-58.2948 -33.0453 0.0105297 68 41 72
-58.4304 -24.2772 0.00964111 56 42 65
-58.5001 -16.9832 0.0089979 56 51 73
-58.5651 -12.7366 0.00762958 44 21 67
-58.023 -50.1286 0.00506748 95 57 78
-57.7531 -50.9383 0.00498005 100 56 79
-57.9523 -37.1671 0.0104352 69 31 70
-58.0254 -32.7745 0.0111426 67 42 74
-58.0944 -28.3941 0.0112569 61 41 68
-58.291 -15.7077 0.00757327 61 16 85
-58.3566 -11.31 0.00942213 58 53 76
-57.8847 -42.1656 0.0079611 89 30 86
-49.1133 -42.2993 0.014104 79 24 81
-49.1838 -37.9201 0.0108396 62 62 64
-49.0403 -46.6889 0.0101561 85 20 86
-48.9758 -50.6006 0.00790265 77 16 77
-58.8355 -34.4646 0.0151762 75 48 83
-58.5473 -51.5314 0.00864439 117 60 93
-58.632 -47.1561 0.00680656 95 21 82
-58.9035 -30.0775 0.00990171 70 47 73
-58.9693 -25.6909 0.0110154 60 51 72
-59.1691 -11.9192 0.00672066 55 51 74
-59.2375 -7.53573 0.00516181 42 58 73
-49.7872 -49.3188 0.00915012 77 15 78
-49.9258 -43.7161 0.0116213 83 22 82
-49.9947 -39.3286 0.0114919 70 24 73
-49.8559 -48.1051 0.00816155 87 18 85
-46.346 -50.6032 0.00902079 79 17 82
-46.4155 -46.2089 0.011616 90 18 92
-46.4786 -41.8298 0.0139281 73 21 83
-52.8229 -44.53 0.0108207 93 24 91
-52.8986 -40.1351 0.0109275 73 27 74
-52.9549 -36.0226 0.0103248 72 36 72
-53.0262 -31.638 0.0117248 59 34 66
-53.1124 -27.4483 0.0111443 58 38 65
-53.1725 -23.0652 0.0114315 54 42 64
-53.234 -18.9493 0.0109426 144 38 190
-55.6599 -26.573 0.0142526 62 44 68
-55.4587 -39.2618 0.0104923 78 28 77
-55.5916 -30.9607 0.012212 59 39 67
-55.8624 -12.8026 0.00860249 203 121 229
-55.3915 -43.6455 0.0111428 88 25 82
-55.3228 -48.0343 0.00702211 87 18 81
-54.0475 -32.0989 0.015344 62 35 70
-53.7697 -49.7217 0.0082601 71 19 71
-53.8401 -45.3369 0.00924987 95 24 90
-53.9687 -36.4891 0.0121428 71 34 72
-54.1041 -27.7097 0.013957 58 38 66
-53.9072 -40.8752 0.00883483 89 30 86
-54.1171 -24.4774 0.0145513 55 41 64
-54.0407 -28.8638 0.013723 57 37 64
-53.8978 -37.6434 0.00971586 71 33 72
-53.969 -33.2521 0.01181 61 33 71
-53.8342 -42.087 0.0117717 86 26 81
-53.7702 -46.4794 0.00811149 87 15 79
-53.7027 -50.8707 0.00686644 72 22 73
-49.8533 -47.9696 0.0109314 86 18 85
-49.986 -39.464 0.0112768 70 24 73
-49.9291 -43.5779 0.0116777 82 23 81
-49.7914 -49.4569 0.00991764 77 15 80
-59.5068 -50.4656 0.0043825 203 57 140
-55.793 -48.308 0.00872643 80 21 75
-55.8614 -44.0496 0.0102473 89 24 82
-55.9912 -35.5453 0.0120882 70 34 72
-56.0673 -31.2341 0.0116621 65 40 70
-56.1347 -26.9758 0.0113014 59 41 65
-56.2017 -22.7278 0.011228 56 44 64
-56.3377 -10.9132 0.00754459 55 31 83
-53.7722 -49.7881 0.00742097 73 20 74
-53.906 -40.6767 0.0110908 83 26 81
-53.9704 -36.4251 0.0111303 71 33 70
-54.0367 -32.1697 0.0122077 62 35 68
-54.1016 -27.9151 0.0130481 57 39 65
-58.0199 -41.76 0.00944592 91 30 87
-58.159 -32.9857 0.00990226 68 41 74
-58.3537 -19.612 0.010624 57 45 67
-58.4972 -8.61475 0.00640214 49 55 71
-59.5073 -48.78 0.00486178 171 66 131
-54.2392 -11.1742 0.00905653 221 106 254
-53.7038 -45.3383 0.00906387 96 25 91
-53.8382 -36.8257 0.012776 70 34 72
-53.9688 -27.7256 0.0112347 58 38 66
-54.0432 -23.597 0.0118397 55 41 64
-54.1095 -19.219 0.0101844 151 32 174
-54.1779 -15.5711 0.00928988 174 93 214
-53.7706 -41.2138 0.00810616 93 33 87
-53.634 -49.7233 0.00682311 69 19 70
-44.3884 -46.6124 0.0117322 88 19 92
-44.4508 -42.6984 0.0113289 71 52 69
-44.3204 -51.0048 0.00860418 89 12 94
-53.6377 -49.6562 0.00808019 69 19 70
-53.7024 -45.4088 0.00850069 95 25 88
-53.7719 -41.1486 0.0106091 93 33 87
-53.8308 -36.8999 0.00992166 71 35 73
-53.8995 -32.0429 0.0126807 62 35 70
-53.9642 -27.7847 0.0136808 58 38 66
-54.0389 -23.5388 0.0118666 55 41 64
-54.104 -19.2821 0.0117636 166 59 191
-54.1742 -15.5016 0.0128715 210 121 247
-54.2418 -11.2487 0.00913926 220 106 254
-42.4969 -44.3227 0.0130385 82 16 87
-42.4347 -48.5761 0.0109681 88 8 97
-57.8259 -44.454 0.00929566 86 18 79
-57.9562 -34.8053 0.0112473 69 39 75
-58.0375 -30.5534 0.011105 67 44 73
-58.1581 -22.0502 0.0101932 63 47 73
-58.2283 -17.7263 0.00831067 58 48 72
-42.0232 -44.6598 0.0112082 82 16 88
-41.9528 -48.5776 0.0123112 88 7 94
-44.1179 -46.6869 0.00954944 85 15 88
-44.0548 -51.075 0.00975499 88 8 93
-55.3232 -51.5449 0.00675592 76 58 60
-55.5199 -38.3207 0.0106473 74 31 74
-55.5869 -33.9281 0.00993803 64 34 68
-55.6627 -29.5284 0.0116433 60 40 68
-55.7309 -25.1578 0.0106251 56 42 65
-55.7932 -20.7008 0.0122722 51 42 63
-55.8653 -16.3086 0.00910365 223 94 255
-57.2797 -51.546 0.0054597 72 22 49
-57.8185 -18.4704 0.0121427 56 48 69
-57.4131 -44.3249 0.00827638 88 19 82
-57.484 -39.9355 0.00920449 76 26 75
-57.617 -31.1616 0.0102714 64 41 70
-57.6852 -27.2395 0.0111941 65 47 73
-57.954 -9.08548 0.00616026 49 56 74
-48.17 -44.5881 0.0108051 87 20 87
-48.2373 -39.6009 0.012992 65 28 69
-48.1051 -48.9777 0.00851023 83 18 86
-57.4894 -38.383 0.00992977 75 33 73
-57.5505 -33.8617 0.00995934 65 38 73
-57.6218 -29.6106 0.0121968 62 39 68
-57.6818 -25.549 0.0110855 60 45 68
-57.8217 -16.787 0.00878853 65 57 81
-57.8881 -12.5281 0.00788442 168 103 197
-59.0352 -18.4656 0.0107077 54 53 70
-58.5611 -49.4533 0.00557036 99 54 74
-58.7656 -36.6298 0.00983648 67 32 72
-58.8994 -27.8542 0.00992909 64 46 70
-58.9621 -23.6001 0.0118771 57 49 70
-59.1061 -14.2187 0.00764437 222 87 252
-59.1698 -9.69424 0.00559936 45 61 74
-58.7002 -40.6781 0.00836552 82 30 78
-56.6726 -42.2275 0.0103786 90 27 84
-56.606 -46.4833 0.00785758 96 20 86
-56.7376 -37.9793 0.0103017 74 33 73
-56.9391 -24.6143 0.0109523 56 42 65
-57.008 -20.3675 0.0100289 53 41 65
-57.1434 -11.2495 0.0085134 55 50 72
-56.5378 -48.1707 0.00743962 88 19 76
-56.603 -44.2571 0.0082622 88 19 82
-56.6754 -39.8656 0.00910103 78 26 75
-56.8105 -31.091 0.0119228 61 38 66
-56.9435 -22.7887 0.0112527 60 47 67
-57.0737 -14.0155 0.0088583 216 171 240
-57.1419 -10.0993 0.00731096 58 54 77
-58.0846 -19.4104 0.0115897 53 44 65
-57.9535 -28.1852 0.0125115 61 41 66
-57.8891 -31.702 0.0140548 64 41 70
-57.6161 -49.3169 0.00615267 91 46 79
-57.7517 -40.4742 0.0080418 83 29 81
-58.1574 -15.1647 0.00944899 164 51 205
-58.2271 -10.5743 0.00680268 51 54 73
-57.5514 -49.3201 0.00705772 89 39 77
-57.6138 -44.9351 0.00961725 90 20 83
-57.6799 -40.4754 0.00973817 85 28 81
-57.7517 -36.0954 0.00892207 68 38 72
-57.8239 -31.6985 0.0107742 64 41 70
-57.8924 -27.32 0.0109678 67 44 73
-57.9568 -23.9384 0.010554 56 43 63
-58.0244 -19.5537 0.0101759 53 44 65
-58.158 -10.7737 0.00734356 51 53 74
-59.3704 -29.5401 0.0122702 70 47 73
-59.1024 -46.619 0.00647827 99 30 88
-59.1684 -42.0966 0.00726723 92 27 85
-59.4393 -25.016 0.0108835 51 36 59
-59.5035 -20.7657 0.0100703 40 20 45
-59.5728 -17.7896 0.00908127 143 123 148
-59.6441 -13.5418 0.00777879 222 101 255
-59.7095 -9.01968 0.00629398 137 135 149
-52.4171 -15.2325 0.0124208 221 184 245
-51.8813 -46.1507 0.0103743 96 23 96
-51.8128 -50.5313 0.00859729 72 18 78
-52.2238 -28.4547 0.012639 58 38 65
-52.2828 -24.0021 0.0126263 62 39 72
-52.344 -19.612 0.0102822 145 18 185
-52.1491 -32.8552 0.0124415 62 32 68
-52.0857 -37.2329 0.0095148 73 32 72
-52.0159 -41.6204 0.00909653 87 26 86
-51.9491 -41.7621 0.0106625 84 24 84
-55.4597 -16.5841 0.0112508 204 83 238
-55.3929 -20.9732 0.0128401 51 42 63
-55.053 -41.3568 0.0115813 86 27 81
-54.9854 -45.7382 0.0090238 85 16 79
-55.1189 -36.9704 0.00943649 72 36 74
-55.1909 -32.5773 0.0120674 60 35 65
-55.2557 -29.7528 0.0134729 59 39 67
-55.3228 -25.3559 0.0128983 56 42 65
-55.5273 -12.6673 0.00836147 150 91 181
-50.0523 -45.8111 0.0115833 87 20 86
-50.1157 -41.2244 0.0112276 75 22 78
-50.1947 -36.9617 0.011954 64 71 64
-49.9897 -50.0621 0.00765837 77 15 79
-53.1655 -43.9124 0.0111321 94 28 90
-53.2258 -39.6624 0.0132612 74 24 75
-53.2936 -35.4181 0.0127893 66 34 71
-53.3723 -30.549 0.0121024 59 36 65
-53.4338 -26.3071 0.0115777 57 39 63
-53.5015 -22.04 0.0112993 55 41 64
-53.562 -17.7925 0.0105894 213 92 253
-53.0938 -48.1662 0.00928885 84 20 81
-57.4141 -10.6414 0.00761805 54 51 72
-56.871 -45.8768 0.0077031 92 22 85
-57.0072 -37.372 0.0105389 76 34 74
-57.1382 -28.7934 0.0111136 60 40 65
-57.2786 -20.2957 0.00970414 54 42 66
-57.3455 -16.0395 0.00994079 209 83 252
-57.9543 -26.8404 0.0120164 56 42 65
-57.6151 -47.9692 0.00625933 97 20 85
-57.6835 -43.9234 0.00790913 86 20 82
-57.884 -30.8974 0.0120625 65 42 71
-58.0173 -22.5848 0.00955916 62 47 70
-58.1538 -13.8125 0.0078772 184 91 223
-58.2254 -9.76387 0.00702027 50 53 68
-57.8253 -35.1423 0.00885024 71 39 76
-57.5496 -52.2218 0.00490063 229 56 184
-49.7847 -45.34 0.00947978 86 24 84
-49.7215 -49.5876 0.00893693 78 16 79
-51.2785 -45.2647 0.00921439 95 22 93
-51.336 -40.8793 0.0111087 74 24 75
-51.4053 -36.4909 0.0130407 67 39 66
-51.476 -33.1059 0.0119947 69 68 74
-51.5389 -28.7242 0.0124865 52 64 62
-51.6149 -24.3359 0.0134059 245 203 251
-51.6778 -19.9561 0.0111237 208 98 255
-51.747 -15.5058 0.0114765 214 185 239
-51.2062 -49.6562 0.00744872 81 12 77
-54.0395 -13.6138 0.0107853 189 86 229
-53.5 -48.844 0.0107321 80 21 77
-53.5716 -44.4613 0.0142551 87 21 83
-53.6356 -39.1901 0.0110331 74 26 74
-53.7043 -34.8099 0.0112367 64 32 71
-53.7649 -30.7044 0.0112116 59 36 65
-53.842 -26.3054 0.0124558 57 39 63
-53.8987 -22.1151 0.0122688 55 42 62
-53.9715 -17.7296 0.0116462 206 83 252
-55.2544 -16.2462 0.0121405 131 31 163
-54.8516 -41.6181 0.0110697 85 26 80
-54.9204 -37.229 0.0119699 72 36 74
-54.9772 -33.3239 0.011306 61 34 69
-55.0626 -28.9266 0.0125861 57 37 65
-55.119 -24.5382 0.0117135 56 40 66
-55.1921 -20.1626 0.0111737 52 43 64
-54.7802 -46.0077 0.0103307 85 15 81
-54.7151 -50.3977 0.00590718 82 25 78
-59.3011 -33.2549 0.0126218 77 44 75
-59.5756 -14.02 0.00908022 228 96 255
-59.2438 -37.2991 0.0102983 76 34 74
-59.3727 -29.0039 0.010716 73 55 79
-59.5091 -20.2263 0.010647 97 71 96
-59.6449 -9.76403 0.00583415 120 120 132
-59.1022 -46.0771 0.00514195 89 10 76
-57.6241 -22.7338 0.0116227 62 47 68
-57.1431 -51.4785 0.00521726 90 47 66
-57.2113 -47.2259 0.00713213 93 21 85
-57.2822 -42.9739 0.00862035 87 26 85
-57.4151 -35.4765 0.011856 70 36 73
-57.5408 -26.9703 0.0102343 61 46 69
-57.691 -18.4084 0.00952957 56 48 69
-57.7514 -14.1526 0.00833924 165 79 202
-57.8856 -23.7307 0.013821 56 43 63
-57.4806 -49.8582 0.00615934 91 52 70
-57.5497 -45.6036 0.00841439 91 21 83
-57.6199 -41.3581 0.00888656 90 30 84
-57.6802 -36.4956 0.0109422 71 37 74
-57.819 -27.9821 0.0116912 60 42 66
-57.9567 -18.8797 0.00966218 57 46 63
-58.021 -14.6269 0.00937125 158 42 201
-45.6033 -52.0875 0.009578 145 61 136
-45.3281 -43.2416 0.0127731 76 19 79
-45.737 -43.3111 0.010245 78 18 82
-45.2634 -47.6256 0.00924451 88 18 90
-45.6684 -47.7025 0.0108427 87 16 91
-45.1947 -51.5429 0.00910041 78 18 77
-51.2765 -45.1323 0.0117428 95 24 94
-51.3339 -41.0227 0.0110823 74 24 75
-51.4716 -32.9806 0.0127625 68 67 73
-51.5474 -28.6004 0.013043 23 29 29
-51.6096 -24.4727 0.0118831 221 180 229
-51.6814 -20.0902 0.0109505 207 97 254
-51.7463 -15.3671 0.0103253 214 184 238
-51.202 -49.5183 0.00878866 82 13 80
-57.6839 -43.9847 0.0101357 86 20 82
-57.8206 -35.2093 0.011264 70 38 75
-57.9543 -26.9121 0.0110969 57 43 66
-58.0242 -22.5256 0.0099419 64 46 70
-58.1578 -13.7487 0.00875355 159 79 194
-58.2262 -9.83231 0.00627753 50 53 68
-57.6204 -47.9021 0.0067727 99 20 86
-51.3366 -49.7256 0.00838274 83 14 81
-51.5356 -37.1718 0.0107156 68 32 70
-51.6113 -32.6525 0.0128118 18 7 21
-51.8801 -15.5708 0.0103218 217 184 243
-51.4057 -45.4749 0.0104949 95 22 95
-57.6206 -47.3599 0.00758694 93 23 85
-57.7535 -39.0564 0.00941229 75 30 73
-57.8843 -30.2879 0.0115788 64 41 70
-57.9463 -25.2898 0.0101013 57 43 65
-58.0239 -20.8998 0.0114758 64 51 77
-58.1546 -12.1209 0.00753861 201 159 223
-58.2267 -8.21096 0.00644254 49 56 72
-57.0074 -40.6188 0.00962799 89 28 85
-57.0687 -36.3602 0.00945849 70 36 73
-57.1395 -32.0491 0.0111019 63 40 69
-57.2152 -27.7859 0.0109833 57 39 61
-57.277 -23.5211 0.0105344 59 45 68
-57.3412 -19.2756 0.011376 53 44 63
-57.4136 -16.0388 0.00869218 211 90 253
-57.4834 -11.7881 0.00742168 39 3 73
-56.9394 -44.8636 0.00802629 88 18 81
-58.3583 -16.8497 0.0104254 59 51 74
-57.9533 -42.4297 0.00881371 88 27 86
-58.0239 -38.0502 0.0109954 74 32 72
-58.09 -33.9228 0.0102842 69 42 77
-58.1542 -29.546 0.0100951 61 38 67
-58.4246 -12.459 0.00724814 46 30 75
-57.8201 -52.0852 0.00475513 255 142 250
-48.3017 -51.8142 0.00949975 89 19 89
-48.3694 -47.6944 0.00997097 92 22 95
-48.5144 -39.1225 0.011534 51 25 52
-48.4405 -43.3084 0.00980053 84 22 85
-57.1449 -45.6693 0.00796345 90 22 83
-57.2115 -41.4196 0.0082696 90 30 84
-57.2731 -36.9008 0.0106034 71 35 73
-57.4163 -28.5982 0.0117781 60 40 66
-57.4778 -24.3446 0.0115083 56 42 67
-57.6211 -15.5705 0.00835282 216 94 255
-57.6876 -11.5172 0.00648083 63 47 92
-57.078 -49.7238 0.00501221 85 28 69
-57.4815 -20.019 0.0130702 56 44 68
-57.5497 -15.4996 0.00971308 219 94 255
-57.0727 -45.4057 0.00754911 90 20 83
-57.2161 -37.0984 0.0113361 69 31 70
-57.2802 -32.5842 0.0109802 63 40 69
-57.3454 -28.3275 0.0112584 60 40 65
-55.7945 -16.7882 0.0134869 149 17 188
-55.3847 -42.4348 0.00999673 81 27 77
-55.4621 -38.0451 0.0106859 74 33 73
-55.5191 -33.3221 0.0106078 61 38 67
-55.6659 -24.8074 0.0113137 56 41 64
-55.7239 -20.4272 0.0104397 52 44 65
-55.3219 -46.5536 0.00903789 89 17 83
-55.256 -50.9384 0.0061112 75 27 67
-55.1199 -50.2654 0.00651956 85 25 79
-55.3842 -33.723 0.0120534 64 37 68
-55.4545 -29.4794 0.0115043 59 39 67
-55.5207 -24.617 0.011235 56 41 64
-55.5944 -20.3703 0.00970111 51 43 64
-55.662 -16.1043 0.00968944 92 0 132
-55.1891 -46.0091 0.0088349 86 15 81
-58.6264 -39.4611 0.0102764 75 29 75
-59.1033 -9.42588 0.00684611 48 62 75
-58.3612 -49.5189 0.00505189 95 56 77
-58.6926 -35.082 0.0113578 68 36 73
-58.765 -30.3415 0.00997175 69 46 72
-58.9641 -17.449 0.00796789 52 49 66
-58.4976 -47.9671 0.00714496 92 31 82
-55.7238 -37.5778 0.0144567 71 35 73
-55.5936 -46.3492 0.00913736 90 18 82
-55.6607 -41.9645 0.00953434 87 28 82
-55.7958 -34.2003 0.0110898 66 34 71
-55.9227 -25.4238 0.0129352 56 42 67
-55.9915 -21.0279 0.0095857 51 42 63
-56.1333 -12.1943 0.00809392 52 44 81
-57.9575 -33.7918 0.0126771 65 40 72
-57.8195 -43.4473 0.00728438 86 20 82
-57.8905 -39.0577 0.00857562 74 29 72
-58.0168 -29.403 0.0110722 61 38 67
-58.0893 -25.2834 0.0116695 57 42 63
-58.23 -16.7153 0.00838522 63 55 78
-58.2907 -12.3316 0.00837168 41 11 65
-58.3602 -8.21009 0.00600375 50 56 70
-57.685 -51.9504 0.00493676 253 153 249
-59.1698 -6.65675 0.00597492 42 59 67
-58.6937 -37.5145 0.0102907 64 32 69
-58.7688 -33.3138 0.0109873 72 43 73
-58.9686 -20.4318 0.00919321 61 52 73
-59.0326 -15.1631 0.00767727 56 52 79
-59.1011 -10.7762 0.00617751 55 65 75
-58.5612 -46.0123 0.00586028 94 22 86
-59.2631 -51.7145 0.00980649 180 75 157
-59.845 -12.7286 0.00953555 176 97 216
-59.3711 -42.6363 0.0075413 84 15 72
-59.4434 -38.3889 0.00936609 69 21 63
-59.5066 -34.1267 0.00935881 62 27 57
-59.5773 -30.3438 0.0122401 81 48 77
-59.9128 -8.48194 0.0058605 129 128 134
-58.4262 -45.4716 0.00847342 87 18 81
-58.565 -43.3729 0.00850107 85 22 79
-58.6296 -39.1268 0.00894538 74 31 74
-58.7632 -30.5489 0.0109669 68 44 70
-58.8361 -26.3018 0.0117263 58 47 64
-59.0329 -13.4778 0.00850359 193 64 227
-59.1014 -9.22466 0.00624915 45 54 69
-58.3603 -49.7233 0.00570695 94 57 75
-58.2263 -20.9679 0.0120374 65 49 75
-58.0185 -33.7979 0.0126758 66 41 73
-57.8206 -47.6991 0.00621655 97 22 85
-58.156 -25.2909 0.0108504 57 42 63
-58.3612 -12.465 0.00884282 149 125 177
-58.4288 -8.21144 0.0066373 50 56 70
-44.9905 -43.9215 0.0134567 79 17 85
-44.9275 -48.3744 0.0115029 89 17 93
-50.466 -44.2564 0.00926947 85 21 82
-50.537 -40.1358 0.0099035 80 25 82
-50.3961 -48.6411 0.00801034 76 15 75
-51.6706 -44.7985 0.00901647 95 24 92
-51.8853 -31.5605 0.0126362 60 37 66
-51.954 -27.1775 0.0123975 55 41 67
-52.0813 -17.2604 0.0113249 200 89 243
-52.1486 -12.869 0.00985651 66 56 91
-51.8078 -35.9537 0.0110738 73 43 77
-51.7415 -40.3451 0.0101384 74 28 77
-51.6086 -49.1813 0.00954676 82 14 81
-52.6206 -35.5515 0.0130149 65 33 70
-52.5613 -39.7931 0.0110933 74 26 76
-52.4885 -44.3832 0.0140191 93 24 91
-58.4271 -11.6508 0.00795725 69 60 89
-57.8202 -50.1952 0.00597376 94 56 77
-57.9506 -42.1655 0.00832932 87 28 86
-58.0895 -33.6624 0.0114437 66 39 72
-58.1568 -29.2724 0.0117386 60 40 67
-58.2207 -24.5458 0.0116827 56 43 62
-58.2918 -20.163 0.00898965 58 49 70
-58.4962 -12.3318 0.00658592 47 40 74
-58.5619 -7.94075 0.00594588 48 57 74
-57.8881 -45.8089 0.00873204 91 21 83
-46.8113 -46.5501 0.0100299 88 16 92
-46.8862 -42.0931 0.0102765 74 20 78
-46.7448 -50.9381 0.00823669 71 17 75
-57.8887 -50.1288 0.00566316 93 59 76
-57.9559 -46.4817 0.00710952 99 23 87
-58.0237 -42.0981 0.00832148 88 29 85
-58.0933 -37.9816 0.0101968 73 31 71
-58.2238 -28.8655 0.0115351 60 40 67
-58.3646 -20.3611 0.0102775 60 51 72
-58.433 -15.9743 0.00825776 67 56 88
-57.7502 -46.2143 0.00705245 95 23 87
-57.897 -37.7021 0.0101534 71 30 70
-57.9585 -32.9881 0.0107836 68 41 74
-58.0868 -24.4765 0.0101604 56 43 63
-58.1569 -20.0915 0.0111912 55 46 67
-58.293 -10.9803 0.00658018 57 53 76
-58.3592 -6.86113 0.00612885 51 58 76
-58.09 -46.8907 0.00773576 93 21 85
-58.362 -29.8116 0.0121848 65 40 70
-58.5635 -11.4481 0.00750138 51 52 72
-58.0241 -51.0045 0.00507676 101 55 81
-58.2255 -38.3195 0.00855589 70 29 69
-58.2999 -33.9233 0.0117577 69 43 78
-58.4339 -25.4244 0.010012 56 43 63
-58.4952 -15.8386 0.0103195 70 50 90
-58.6289 -7.33469 0.00542203 49 58 75
-58.8362 -21.5164 0.0112802 56 49 67
-58.4275 -50.1289 0.00484801 100 57 77
-58.5686 -38.5865 0.00954218 73 33 70
-58.6962 -29.8066 0.00993104 67 43 72
-58.7619 -25.898 0.010755 60 47 67
-59.0364 -7.73662 0.00588633 45 58 74
-59.6466 -32.1716 0.0119277 136 99 130
-59.5075 -41.0149 0.00800409 85 6 61
-59.7056 -27.6511 0.0111976 157 121 149
-59.7762 -23.3956 0.0106972 124 95 115
-59.9142 -14.5591 0.00634628 138 113 145
-59.9794 -10.0347 0.00592634 129 123 135
-59.3727 -49.7895 0.00454395 181 82 146
-59.362 -6.12208 0.0140697 38 53 60
-58.9698 -31.7596 0.00979563 68 43 72
-59.0356 -27.5821 0.00996442 65 47 71
-59.2399 -14.6884 0.00761003 93 29 107
-59.3017 -10.5036 0.00680528 52 58 70
-58.7638 -44.6568 0.00709773 87 17 80
-58.8329 -35.9573 0.0109586 71 37 74
-58.9652 -27.451 0.0114547 59 44 67
-59.0312 -23.2594 0.01029 58 44 67
-59.0971 -18.876 0.00811121 55 54 72
-59.1694 -14.7595 0.00872363 75 11 89
-58.6313 -48.9133 0.00534757 93 54 72
-43.5775 -48.3724 0.00996785 91 11 96
-43.6502 -44.0584 0.0101553 79 22 79
-53.3641 -25.8331 0.0151147 56 41 64
-53.0292 -45.8766 0.0100761 96 20 92
-53.499 -17.0515 0.0117398 145 26 189
-53.2347 -34.6622 0.0117812 63 31 70
-53.2927 -30.4222 0.0118662 59 36 64
-53.4279 -21.5712 0.0109211 53 40 64
-53.5676 -12.8011 0.0091264 214 101 253
-53.1669 -39.1917 0.0123949 75 25 74
-52.9599 -50.1308 0.00771307 74 20 75
-57.8212 -51.0045 0.00599328 101 57 80
-57.8869 -46.6189 0.00651739 98 22 87
-58.019 -36.9622 0.00945171 69 31 70
-58.0962 -32.8452 0.0105 68 41 74
-58.1668 -28.4691 0.0123891 61 41 66
-58.2248 -24.2752 0.0122041 56 42 65
-58.2916 -19.8932 0.0104688 57 45 67
-58.4282 -11.3833 0.00842553 55 53 74
-58.5636 -8.21079 0.00628637 48 55 71
-55.1229 -40.8141 0.0101081 83 29 79
-55.1841 -36.5639 0.0121309 69 37 74
-55.2612 -30.0816 0.0107801 58 38 66
-55.3214 -25.8339 0.0124244 58 42 68
-55.465 -17.3235 0.00940839 156 36 196
-55.5234 -13.0023 0.00799513 207 108 234
-58.2264 -38.2467 0.0114561 70 29 69
-58.5589 -11.5189 0.00877279 59 57 81
-58.3589 -29.7436 0.0116814 65 40 70
-58.4354 -25.4991 0.0106994 55 42 62
-58.4946 -15.7728 0.00802651 66 50 87
-58.6315 -7.26556 0.00600598 49 58 75
-58.091 -46.8228 0.00586953 94 22 85
