ply
format ascii 1.0
comment Created by Open3D
element vertex 1277
property double x
property double y
property double z
property uchar red
property uchar green
property uchar blue
end_header
-49.5148 3.95109 0.0160808 48 57 88
-49.4495 -0.447736 0.00719471 60 57 84
-50.8661 -5.03948 0.00697055 70 57 90
-50.7977 -9.43072 0.00811152 76 60 87
-50.9342 1.03672 0.00589087 58 63 92
-50.9349 -3.28345 0.00639894 65 58 89
-50.8662 -9.35748 0.00821436 75 58 89
-51.0022 1.10437 0.00593895 58 63 91
-51.0689 -3.15017 0.0068737 66 60 89
-51.003 -7.53633 0.00749724 77 56 89
-51.1369 1.23862 0.00615311 56 63 92
-51.8806 -2.27009 0.0059654 64 61 88
-51.8121 -6.38721 0.00755134 75 58 92
-51.7448 -10.774 0.0115237 69 90 88
-51.677 -14.9622 0.00975198 57 107 70
-51.9631 2.11245 0.022405 52 64 86
-54.1249 -0.402419 0.0180387 59 66 93
-54.1722 0.173428 0.0155514 56 68 92
-54.0401 -4.63368 0.00697081 68 62 90
-53.9722 -8.88581 0.00847234 82 56 96
-53.9059 -13.1413 0.00824051 88 55 100
-53.8371 -17.9998 0.00865702 92 42 101
-54.2684 4.38863 0.0204359 23 108 75
-54.7149 -3.55407 0.00545199 63 63 89
-54.6456 -8.28097 0.00699149 79 59 96
-54.5828 -12.6741 0.00871776 89 52 103
-54.5133 -16.7815 0.011882 91 46 101
-37.9748 0.22787 0.00545819 60 51 76
-37.9073 -2.06802 0.00618721 62 50 74
-35.0048 1.84367 0.0061554 60 45 74
-34.9369 -2.47316 0.00613252 57 53 70
-36.5585 -0.108482 0.0053261 80 67 95
-46.9804 3.35199 0.0102863 54 56 81
-46.8842 -1.05633 0.0066516 59 52 83
-46.8188 -5.51297 0.00837998 67 56 89
-47.2876 -3.69173 0.00731936 64 54 85
-47.3597 0.698762 0.0076014 59 53 82
-45.5358 2.24955 0.00673865 54 54 80
-46.2783 -4.50019 0.0094256 64 50 83
-46.3455 -0.17886 0.00632742 58 51 83
-46.4005 4.0603 0.020642 54 55 83
-42.9698 -2.13592 0.00688134 57 45 83
-43.0384 2.11679 0.00679723 57 51 77
-40.945 2.38651 0.00529159 56 48 77
-40.8784 -2.20447 0.00769564 60 45 76
-57.6879 -3.20957 0.00967877 63 68 92
-57.616 -7.67162 0.00577719 72 59 89
-57.5525 -12.0541 0.00837089 86 53 98
-57.4831 -16.4448 0.00910155 89 47 103
-57.7255 1.19545 0.016004 48 77 87
-57.2789 -6.1858 0.0064209 71 62 93
-57.2167 -10.5719 0.00965106 82 55 96
-57.1403 -14.9568 0.00863664 91 51 104
-57.3488 -1.79445 0.0129329 56 66 91
-46.0753 -2.47114 0.0070561 58 51 85
-46.1429 1.91072 0.00684012 57 57 83
-34.7355 0.159774 0.00546611 65 52 82
-42.4305 2.25226 0.00632601 53 49 76
-42.3625 -2.1351 0.0077441 61 45 84
-55.9973 -4.83268 0.00581522 70 63 94
-55.9278 -9.22638 0.00802095 80 55 97
-55.8641 -13.614 0.0103086 91 53 102
-56.1276 4.00622 0.0196183 17 123 74
-55.1176 1.1026 0.0181559 52 70 90
-55.0518 -3.28182 0.0057351 65 65 91
-54.9836 -7.67084 0.00783989 75 59 96
-54.9155 -12.123 0.00739113 87 56 98
-54.8509 -16.512 0.0107936 92 47 102
-38.0384 3.58894 0.0208676 59 48 77
-37.9733 -0.651177 0.00575508 60 50 77
-48.1657 -2.3376 0.00850082 62 53 83
-48.2349 2.38725 0.00613911 54 55 83
-48.1001 -6.72626 0.00843803 69 58 89
-36.7609 -1.93348 0.00701145 59 50 71
-36.8448 2.30861 0.0134716 59 49 76
-58.5467 -0.0255506 0.00974514 40 75 72
-58.4268 -2.3975 0.010876 56 69 86
-58.3586 -6.65878 0.005626 71 59 89
-58.2925 -11.1831 0.00729535 82 53 97
-58.2222 -15.4335 0.00960146 99 56 112
-58.4947 -4.29745 0.0130341 64 64 90
-56.8743 -3.88931 0.00511696 65 65 92
-56.7451 -13.2724 0.00884944 89 52 103
-56.8098 -9.01983 0.00804401 78 56 95
-56.9236 0.389776 0.0187169 50 73 88
-37.1641 -3.14617 0.00672409 60 55 69
-37.241 1.09265 0.00736775 60 48 78
-43.3763 2.45379 0.00640761 56 50 78
-43.3062 -3.75669 0.0073549 35 91 60
-46.4116 -2.33856 0.00850975 58 51 82
-46.4823 1.77484 0.00695318 58 55 82
-37.5045 -0.715656 0.00624717 61 51 75
-37.5881 3.79904 0.0164635 59 52 74
-55.9273 -2.60915 0.00917001 62 66 91
-55.862 -6.72332 0.00597248 71 61 92
-55.7915 -11.1119 0.00895763 84 55 99
-55.7259 -15.2971 0.0115487 91 49 103
-56.0065 1.23848 0.0203642 50 73 90
-55.7288 -16.9214 0.00994842 94 44 103
-55.7921 -11.6524 0.00794301 86 55 99
-55.8618 -7.26731 0.00757268 76 60 96
-55.9291 -3.14766 0.00585848 60 62 87
-52.4051 1.81668 0.0102866 52 67 87
-52.3518 -2.67793 0.00654191 66 62 89
-52.2854 -6.92843 0.00703898 76 58 90
-52.1453 -15.2346 0.0094676 81 60 91
-52.2193 -10.9745 0.0100801 86 55 97
-53.2978 -12.6709 0.011157 91 59 103
-53.3625 -7.93991 0.00713055 79 60 96
-53.4315 -3.55444 0.00648204 67 62 90
-53.5252 0.567298 0.0175359 55 70 93
-35.3426 -2.87925 0.00623298 59 52 70
-35.4139 1.63601 0.0105967 57 46 76
-44.9278 1.37513 0.00653866 58 54 81
-44.8556 -2.88012 0.00784267 58 47 79
-33.6556 -0.245204 0.00637482 62 47 78
-33.587 -3.75704 0.00604352 55 107 62
-34.2618 0.36245 0.00586214 61 52 83
-34.1945 -3.89256 0.006013 45 115 54
-34.3319 0.429272 0.00609678 60 50 83
-34.2615 -3.82213 0.00672074 48 112 55
-34.3967 -3.08106 0.00564181 57 53 69
-34.4655 1.10346 0.00630258 57 46 76
-34.6003 -2.54228 0.00638703 58 53 71
-34.6705 1.84548 0.00662417 56 46 73
-34.9371 -2.74384 0.0056229 56 52 69
-35.005 2.11927 0.00616017 57 46 76
-35.4099 -2.33822 0.0059974 59 52 70
-35.4718 2.03595 0.0155194 55 46 73
-42.9014 -0.247395 0.00740941 62 51 83
-42.9809 3.86572 0.0179769 55 51 78
-37.169 3.79278 0.0192492 53 50 70
-37.0972 -0.109652 0.0061687 62 49 77
-37.1642 -0.517417 0.00552417 62 47 77
-37.2984 -0.382039 0.00535944 61 47 76
-37.4351 0.968599 0.00536626 60 49 78
-45.0612 -0.379827 0.00645692 57 50 82
-44.9958 -4.76702 0.00759774 42 99 64
-37.57 0.900459 0.00512222 61 50 77
-37.5054 -3.21778 0.00673812 60 53 69
-37.8383 0.159817 0.00557273 61 53 75
-37.7726 -3.95789 0.007169 44 109 53
-37.839 -3.68899 0.00678742 49 103 58
-37.9075 0.561609 0.00555636 64 51 79
-38.4455 -3.0802 0.00705879 63 50 76
-38.5159 0.430492 0.00601301 59 49 77
-38.5142 -3.82495 0.00737726 44 102 54
-38.5831 0.563388 0.00609741 59 49 76
-38.5144 -3.75388 0.00717523 45 101 55
-38.5827 0.496172 0.00584613 59 49 76
-38.716 1.23919 0.00587112 59 49 82
-38.6486 -3.14645 0.00668975 62 50 71
-38.8553 -2.33991 0.00760974 60 51 78
-38.9196 1.77892 0.00564251 57 48 77
-37.3662 1.51212 0.00819018 64 49 79
-37.2996 -2.74406 0.00736387 60 52 73
-39.3236 1.64339 0.00602466 59 50 79
-39.2574 -2.26971 0.00645237 62 48 77
-39.4602 1.78004 0.00554561 60 49 78
-39.3919 -2.60491 0.00807377 59 48 73
-40.1326 -3.61773 0.00771477 66 100 83
-40.2033 0.630305 0.0063992 60 50 80
-40.6069 -1.25857 0.00699733 58 47 77
-51.4091 -4.83562 0.00721787 68 57 87
-51.335 -9.08441 0.00832718 77 55 91
-51.473 0.024748 0.00645426 59 63 92
-51.5321 4.29589 0.0195633 49 64 94
-40.608 -0.922157 0.00687075 62 47 80
-40.6651 3.69517 0.0173665 52 47 77
-40.7419 -0.517564 0.0071424 61 49 79
-40.8123 3.61418 0.0204508 52 46 74
-40.8757 3.39302 0.00457258 50 47 74
-40.8092 -0.988204 0.00633347 62 48 81
-41.284 -2.06985 0.00722915 60 47 79
-41.3508 2.18473 0.00600229 59 48 78
-41.6871 0.159658 0.00622494 62 55 86
-41.8237 1.1054 0.00618194 58 51 82
-41.7527 -3.28342 0.00922041 49 52 69
-42.1704 4.48402 0.0156256 19 85 43
-42.0923 0.360726 0.00653873 61 51 84
-42.6965 -3.01057 0.00783338 54 44 78
-42.7663 1.2405 0.0062218 58 50 81
-42.8341 0.562322 0.00653839 60 53 84
-42.7671 -3.21549 0.00783102 49 50 74
-43.0369 1.2396 0.00596339 60 51 82
-42.9693 -3.14864 0.00774297 52 48 75
-43.1059 1.91438 0.00619644 60 51 82
-43.0361 -2.80839 0.00765511 55 45 82
-43.8471 2.31961 0.00574938 57 50 82
-43.7806 -1.934 0.00686484 61 46 85
-44.3204 2.70766 0.00992622 56 50 78
-44.2532 -1.66238 0.00679082 61 49 85
-44.4443 2.94996 0.016287 56 50 78
-44.3868 -1.52435 0.00675008 59 49 84
-44.4546 -1.46322 0.00738994 57 50 84
-44.5121 2.80614 0.0186338 56 50 78
-44.9333 3.04493 0.0102862 58 54 81
-44.8589 -1.32905 0.00683861 58 51 83
-47.4918 1.30699 0.00597268 61 54 85
-47.4257 -3.07814 0.00861333 63 52 84
-45.2005 3.40155 0.0225895 55 51 78
-45.1318 -0.987288 0.00755988 58 50 82
-45.3333 4.13717 0.0166626 49 49 72
-45.2651 -0.244954 0.00693593 58 51 82
-45.2033 -4.97448 0.00976278 43 100 62
-46.4126 0.429812 0.00695917 62 55 85
-46.349 -3.82297 0.00922464 60 49 81
-56.0731 -1.79261 0.00917665 58 68 93
-55.8658 -15.1638 0.0119326 89 51 102
-55.9299 -10.9151 0.00719045 83 54 98
-55.9972 -6.65788 0.00666568 72 61 91
-47.1583 4.79813 0.0170095 26 87 59
-47.0902 1.1732 0.00603172 60 53 84
-47.0161 -3.21398 0.00861652 62 53 83
-55.1819 4.07499 0.019839 20 122 75
-54.8447 -17.2508 0.00967551 92 44 102
-54.9184 -13.0029 0.00951169 89 53 102
-54.9837 -8.95112 0.00715327 79 57 95
-55.053 -4.70112 0.00604344 68 63 93
-55.1283 -0.166809 0.0210577 55 70 91
-47.1544 0.495931 0.00766945 59 54 82
-47.0842 -3.14673 0.00820305 60 51 82
-47.6817 3.37201 0.0231235 52 58 87
-47.5589 -6.79536 0.00795096 52 96 71
-47.6289 -2.53921 0.00734476 65 51 86
-48.1018 1.91397 0.00538544 56 55 80
-47.9636 -6.58946 0.00919569 69 56 86
-48.0302 -2.19924 0.00772006 60 53 84
-49.1584 3.4801 0.02022 52 56 85
-49.0464 -5.3093 0.0081572 70 55 86
-49.114 -1.05578 0.00757042 61 55 83
-50.256 4.06862 0.00974476 49 62 89
-50.1267 -4.42697 0.00761415 68 57 87
-50.0536 -9.15548 0.00849359 60 91 75
-50.1917 -0.0426005 0.00666995 58 58 84
-50.2517 4.57622 0.01478 47 66 87
-50.1244 -4.22703 0.00818122 68 58 87
-50.057 -8.27927 0.00842491 76 59 93
-50.1924 0.0244123 0.00695187 58 58 84
-50.1897 -4.09448 0.0077184 68 57 87
-50.1212 -8.48318 0.0107298 74 58 91
-50.2583 0.0250297 0.00666747 58 60 85
-50.2596 -4.29728 0.00740711 68 57 87
-50.194 -8.41319 0.00894688 76 56 91
-50.3266 0.0925516 0.00671387 57 59 85
-50.7328 -3.81886 0.00699821 66 60 88
-50.6607 -8.20921 0.00862703 77 58 90
-50.7973 0.566449 0.00622764 58 64 90
-51.2747 -3.08042 0.00744665 65 58 89
-51.2034 -7.33107 0.00737838 76 57 90
-51.341 1.17191 0.00567844 57 64 92
-52.6898 -1.79768 0.00606572 62 62 88
-52.6207 -5.91698 0.00737312 74 58 94
-52.5534 -10.3028 0.00929924 83 56 99
-52.4931 -15.5708 0.00971088 84 56 94
-52.7631 2.56908 0.0204066 48 68 87
-53.6333 -0.854093 0.00584119 61 65 90
-53.568 -5.03571 0.00695451 71 60 90
-53.5005 -9.42508 0.0083032 81 56 96
-53.4359 -13.5404 0.00944292 86 54 95
-53.3639 -17.9324 0.0102753 91 44 104
-53.7246 3.54164 0.0151286 48 71 89
-54.4399 0.0936295 0.0194451 56 70 93
-54.3762 -3.95671 0.00572371 63 63 89
-54.3092 -8.21319 0.00792444 77 58 98
-54.2437 -12.729 0.00909052 89 55 100
-54.1745 -16.9926 0.0099468 92 44 102
-54.5275 4.32795 0.0196035 19 115 78
-54.5648 0.03746 0.0180387 55 70 91
-54.5135 -4.0957 0.00638651 63 63 89
-54.4419 -8.48109 0.00778226 79 57 95
-54.3748 -12.6614 0.00834554 88 55 100
-54.6258 4.42626 0.0196035 21 114 76
-55.185 1.71013 0.0142875 51 73 87
-55.1185 -2.67594 0.00512781 61 65 90
-55.0518 -7.06481 0.00657853 75 59 96
-54.9841 -11.4497 0.00849871 84 55 99
-54.9202 -15.9096 0.0108502 89 51 102
-55.2743 0.771756 0.0141627 52 71 91
-55.1875 -2.60625 0.00520347 61 65 90
-55.1201 -6.99594 0.0063642 75 59 95
-55.0542 -11.3793 0.00947243 84 55 99
-54.9891 -15.7701 0.00936986 89 51 102
-55.5926 1.25557 0.0245787 50 72 90
-55.5232 -3.01204 0.00506842 65 65 91
-55.455 -7.8729 0.00660438 78 58 95
-55.3873 -12.1242 0.00848096 87 56 100
-55.3211 -16.3815 0.00789434 91 48 100
-41.2165 -1.12487 0.00748991 73 61 91
-41.1465 3.06264 0.00515515 53 48 79
-41.2813 3.26397 0.00531782 53 48 78
-41.0802 -1.32758 0.00688012 58 47 77
-50.8672 -0.380601 0.00556645 58 60 85
-50.7314 -8.88533 0.00796324 76 56 91
-50.7983 -4.63562 0.0076417 70 57 90
-33.3171 -4.02386 0.00561721 47 118 54
-56.6793 -3.14314 0.00949856 61 65 90
-56.6055 -7.53399 0.00624084 74 60 91
-56.5399 -11.45 0.00839318 84 54 99
-56.4682 -15.8417 0.0103781 92 47 104
-56.7335 1.23824 0.0196615 48 72 85
-43.315 3.13704 0.0159381 50 47 74
-43.2402 -1.12392 0.00762242 61 51 79
-43.362 4.22085 0.0174762 53 59 77
-45.5377 0.0911107 0.00644626 58 54 81
-50.8671 -6.58893 0.00884286 72 56 91
-50.9341 -1.7319 0.00635985 61 61 87
-50.9897 2.5349 0.0164564 52 64 88
-59.9118 -16.0409 0.00713351 226 124 201
-59.9802 -11.7865 0.00665112 241 131 217
-53.8368 1.16873 0.0192428 55 70 91
-53.7034 -7.33334 0.00713971 75 59 95
-53.636 -11.5852 0.00845068 86 55 97
-53.5671 -15.9065 0.0102756 88 53 95
-53.77 -3.08075 0.00602271 63 65 90
-56.8 0.508447 0.0170253 49 72 88
-56.7407 -3.88944 0.00524158 64 65 91
-56.6078 -12.6678 0.00792881 88 53 102
-56.5356 -17.1155 0.00938556 92 44 102
-56.6731 -8.27665 0.0073244 76 58 96
-45.3998 1.03661 0.00648416 60 53 83
-45.3364 -3.21305 0.00731121 59 47 83
-36.0811 -3.21624 0.00640129 59 56 67
-36.1501 1.17479 0.00944794 55 49 75
-38.1109 -2.87627 0.00765533 61 52 71
-38.1768 1.50921 0.005493 62 49 79
-36.745 2.63551 0.0102859 57 47 74
-36.6908 -1.59554 0.00663977 61 49 73
-48.3685 0.631159 0.00675303 59 59 85
-48.2325 -7.87171 0.00811587 49 107 66
-48.3026 -3.48576 0.00822924 64 53 84
-39.7303 0.0241894 0.00584275 61 50 80
-39.7978 4.28026 0.0169894 25 75 47
-38.3129 -1.18996 0.00676954 61 56 79
-38.3825 3.04475 0.0146906 57 48 75
-33.0474 -2.2029 0.00515765 62 50 74
-44.8378 4.08073 0.0138353 50 53 77
-44.723 -4.43048 0.00895394 41 97 62
-44.7912 -0.0432269 0.00690069 60 51 85
-59.7063 -0.922209 0.024524 164 186 185
-59.6549 -5.45509 0.010583 182 168 183
-59.5746 -9.69439 0.00548713 227 144 211
-59.2335 -4.22793 0.014931 108 106 125
-59.102 -12.7331 0.00645518 103 66 110
-59.0347 -16.9806 0.00899767 94 47 101
-59.1689 -8.48164 0.00693488 91 69 103
-54.8658 1.90598 0.0157247 50 71 90
-54.7802 -2.60724 0.00529807 62 64 92
-54.6483 -11.4526 0.00871204 87 56 100
-54.5779 -15.7008 0.00926917 90 52 99
-54.7144 -6.86222 0.00775971 75 60 90
-54.4739 1.77183 0.0185099 50 71 90
-54.3773 -2.40469 0.00568257 63 66 89
-54.2417 -10.9074 0.0107991 84 56 97
-54.1702 -15.297 0.0104378 90 53 97
-54.3099 -6.79067 0.00769263 74 59 92
-39.2583 -0.110091 0.00677416 60 49 79
-39.3353 3.79829 0.0169713 57 52 81
-37.4354 -0.0427658 0.00543346 59 49 76
-47.9419 4.23438 0.0195172 49 59 85
-47.8975 -0.514581 0.00768046 60 54 82
-47.8331 -4.89952 0.00924041 68 53 86
-58.4283 -6.59026 0.0054868 72 59 87
-58.3603 -10.8449 0.00629486 81 53 94
-58.2877 -15.0939 0.0074142 103 60 114
-34.3289 0.632863 0.00549261 58 47 80
-34.2633 -3.48544 0.00607449 58 60 65
-34.8029 1.64235 0.00624412 59 47 77
-34.7349 -2.74221 0.0058719 57 53 70
-34.6684 -2.88017 0.00682439 57 54 70
-35.0048 1.30744 0.00569622 59 45 78
-34.9376 -3.0123 0.00623089 59 55 71
-35.1382 1.98227 0.00623479 59 44 73
-35.075 -2.27137 0.00616567 57 53 70
-44.1184 -2.67663 0.00718982 61 45 82
-44.1854 1.23949 0.00672552 57 53 83
-35.2061 -2.60838 0.00687783 58 51 69
-35.4144 2.2261 0.0102858 55 46 72
-35.3402 -1.8652 0.00627289 62 56 77
-35.886 3.25347 0.0154275 55 45 69
-35.8172 -1.12378 0.00591642 56 48 71
-48.311 3.65905 0.0102864 50 59 84
-48.167 -5.71127 0.00754162 70 54 91
-48.2331 -0.719321 0.00689901 60 54 82
-36.5001 3.84239 0.0179936 50 53 71
-36.4238 -0.245702 0.0054412 66 52 85
-36.5607 3.98595 0.0152988 50 56 65
-36.491 -0.246137 0.00640869 66 53 84
-37.4615 3.76142 0.0102249 58 50 71
-37.368 -0.446848 0.00645039 61 46 77
-38.0504 2.1067 0.0148026 58 49 76
-37.9754 -2.13437 0.00645953 62 50 74
-39.5256 -2.60705 0.00665823 57 49 74
-39.5965 2.65715 0.00524245 53 47 75
-45.6014 -2.13554 0.00687414 58 51 82
-45.6686 2.24837 0.00647853 55 55 81
-55.4561 0.911838 0.0177103 52 72 93
-55.2547 -12.1239 0.00800082 87 56 100
-55.1892 -15.6411 0.00909515 93 50 103
-55.3241 -7.87395 0.00896155 80 58 94
-55.3915 -3.35002 0.00561673 65 65 92
-40.3364 2.38661 0.00517897 59 50 77
-40.2688 -1.86602 0.00688733 62 45 79
-40.4048 2.52206 0.00485946 59 50 78
-40.336 -1.52958 0.00657095 59 46 78
-40.7382 4.06297 0.0154005 51 54 74
-40.6741 -0.312586 0.00681185 60 49 79
-41.3505 -0.446837 0.00680027 62 49 81
-41.756 -0.855569 0.0065505 61 47 80
-41.7957 3.5426 0.0177176 53 46 80
-42.0916 0.564856 0.00701355 59 52 83
-42.0223 -3.68672 0.00786858 38 90 58
-42.2281 0.158362 0.0061622 63 49 85
-42.2877 4.47484 0.0146537 21 85 45
-42.7668 0.62947 0.00654887 61 52 81
-42.7011 -3.75444 0.00730679 36 93 60
-43.3082 1.44184 0.00632286 60 49 81
-43.2411 -2.94627 0.0081939 56 44 80
-43.7129 -2.47385 0.00763988 61 47 83
-43.7821 1.64144 0.00630167 59 50 79
-43.8469 1.7135 0.00630345 59 51 79
-43.7829 -2.67452 0.00717354 61 46 79
-35.4102 0.692683 0.0103632 63 50 78
-35.3416 -3.55364 0.00739542 46 61 54
-44.3858 2.52203 0.00598193 56 52 79
-44.3186 -1.86381 0.00699816 62 49 85
-50.5971 -0.0437255 0.00567532 59 59 87
-50.5304 -4.29461 0.00750869 69 58 88
-50.4609 -8.82391 0.00981126 77 58 87
-50.6537 4.00412 0.0195572 50 62 92
-44.9954 4.00923 0.0192792 49 49 75
-44.9281 -1.2556 0.00733222 57 50 83
-36.1527 -0.313179 0.00531196 64 52 81
-45.138 3.24964 0.0102862 56 51 81
-45.062 -1.2566 0.00768864 58 50 84
-45.338 3.2592 0.0164379 52 52 78
-45.2675 -0.990819 0.00707839 58 49 84
-45.9399 -0.516939 0.00659531 60 50 89
-45.8733 -4.63165 0.0102239 60 51 79
-46.0592 3.45434 0.0102863 54 54 80
-46.0102 -0.178667 0.0063672 62 52 86
-45.9391 -4.56432 0.00968579 62 50 80
-43.915 1.0357 0.00606551 59 52 83
-43.8486 -3.14677 0.00713584 55 56 75
-50.1248 1.2386 0.00492365 58 59 85
-50.0578 -2.94543 0.00695726 67 56 86
-49.9893 -7.33202 0.0100841 76 56 91
-46.5506 0.29238 0.0067036 59 53 82
-46.4823 -3.95665 0.00843281 61 50 84
-47.0891 0.832817 0.00642632 57 54 81
-47.0233 -3.41969 0.00824839 64 51 81
-52.4813 4.62364 0.0192731 32 70 85
-52.352 -3.89132 0.00703891 67 60 89
-52.2829 -8.13886 0.00754557 77 57 94
-52.1503 -17.2482 0.0102759 81 51 92
-52.4199 0.361644 0.00543594 59 66 94
-55.8713 -2.67567 0.0114012 64 66 91
-55.945 1.42026 0.0176135 50 73 92
-55.7937 -7.06391 0.0069076 75 59 96
-55.7286 -10.7059 0.00848224 84 54 98
-55.6596 -15.0938 0.00974165 89 51 102
-47.5601 1.37369 0.00584044 60 54 84
-47.4207 -7.40159 0.00879689 43 106 63
-47.4916 -3.01241 0.00850089 62 52 84
-47.3926 4.69883 0.0184578 22 63 49
-47.3581 -0.177766 0.00708176 60 55 85
-47.2895 -4.4279 0.00812046 67 52 85
-48.8405 2.52203 0.00583985 54 60 86
-48.7074 -7.67005 0.00816658 65 77 81
-48.7753 -1.72953 0.00896687 63 57 85
-49.2478 3.06268 0.00523942 53 59 85
-49.1136 -5.44295 0.00813165 70 55 86
-49.181 -1.32519 0.00830908 62 56 82
-49.381 3.06143 0.00536531 53 58 85
-49.2459 -4.69973 0.00728817 70 55 87
-49.1802 -8.95571 0.00905776 51 108 63
-49.3147 -1.19047 0.00782841 62 56 84
-49.45 -5.23991 0.00738091 71 55 90
-49.5176 -0.989001 0.00765244 61 57 84
-50.3583 4.17098 0.00974476 50 61 91
-50.1913 -4.3622 0.0074045 68 57 87
-50.1262 -8.74736 0.00821553 74 60 87
-50.2606 -0.244609 0.00722819 58 58 86
-51.9463 -7.1302 0.00889482 74 57 91
-51.8773 -11.3799 0.00938588 61 66 75
-51.818 -15.6421 0.0100352 58 90 75
-52.0022 1.50753 0.0173534 55 66 88
-44.656 1.57693 0.00633438 58 51 82
-44.5878 -2.67391 0.00818573 58 46 79
-52.3515 -2.20217 0.00613018 65 62 89
-52.2831 -6.58961 0.00755635 74 59 90
-52.2161 -11.3139 0.00931393 85 54 95
-52.1506 -15.7005 0.0100018 81 61 90
-52.4132 1.91854 0.0173829 53 67 88
-57.7522 -5.30771 0.0055922 69 62 90
-57.6875 -9.69625 0.00646786 79 54 96
-57.6195 -14.1542 0.00864105 91 53 104
-57.8131 -0.942154 0.0193912 53 68 89
-52.756 -1.59615 0.00552517 62 63 91
-52.6897 -5.98121 0.00683119 74 58 94
-52.6206 -10.3688 0.00895761 82 55 98
-52.5534 -14.7608 0.0107771 83 56 91
-52.8243 2.32958 0.0173998 51 67 89
-52.8242 -1.99955 0.00597339 61 63 88
-52.7576 -5.91675 0.00661577 74 59 93
-52.6949 -10.3068 0.00762172 83 55 96
-52.6211 -14.6926 0.010649 84 56 91
-52.8926 2.39501 0.0197709 50 68 88
-52.8256 -1.79689 0.00606537 61 63 88
-52.7575 -6.11509 0.00840938 74 58 94
-52.6898 -10.3729 0.00962569 83 55 96
-52.6229 -14.6212 0.00916069 82 55 90
-52.9161 2.42676 0.0157074 49 67 87
-53.5674 -0.382083 0.0100225 60 66 91
-53.4986 -4.63576 0.00697081 69 60 89
-53.4326 -9.15049 0.00727751 81 56 96
-53.3696 -13.4116 0.0106069 86 54 95
-53.2995 -17.9986 0.0106484 91 43 102
-53.6362 3.14179 0.0176326 49 68 88
-46.6857 0.428098 0.00658433 59 54 81
-46.613 -3.95587 0.00876034 62 49 85
-46.758 4.56111 0.0154663 20 62 50
-46.5491 -6.52615 0.00968565 42 102 62
-45.0632 -2.60735 0.00717738 58 48 79
-45.1296 1.9146 0.00703333 58 52 80
-45.13 1.77874 0.00631152 58 51 79
-45.0604 -2.47587 0.00822462 58 47 77
-37.2361 -3.21574 0.00654785 59 55 67
-37.2962 1.31076 0.0118148 63 50 78
-56.5333 1.27596 0.0242704 49 72 88
-56.4702 -2.95122 0.00938079 60 66 92
-56.3376 -11.4533 0.00800379 83 54 98
-56.4041 -7.19895 0.00779931 74 58 94
-59.7771 -10.9791 0.00619593 255 152 244
-59.7099 -15.237 0.00887194 221 130 200
-59.8677 -6.39196 0.0143168 122 94 119
-39.4597 0.16048 0.00641333 61 50 80
-37.0404 2.60257 0.0203584 57 49 76
-36.8268 -2.67715 0.00668924 60 53 72
-36.9647 -1.93103 0.00700989 60 51 72
-32.9803 -3.62122 0.00553485 54 60 67
-41.2809 -1.93262 0.0075413 63 48 80
-41.3493 2.59055 0.00535444 57 48 79
-52.8188 4.36939 0.0144336 47 69 93
-52.7571 -0.381587 0.00557319 58 65 94
-52.6864 -4.77151 0.00716345 71 62 93
-52.4908 -16.9132 0.00974798 88 50 97
-52.5565 -13.2748 0.0107444 82 54 94
-52.6209 -8.89091 0.00909154 79 57 93
-49.9223 -2.60784 0.00654017 64 58 86
-49.7872 -4.16058 0.00690016 69 56 86
-49.8559 -6.86374 0.00887431 73 58 91
-49.7217 -8.41341 0.0105716 78 62 90
-49.9903 1.6443 0.00526979 57 62 86
-50.0564 2.18451 0.0050619 56 62 88
-49.9893 -2.2027 0.0072602 65 57 86
-49.9246 -6.32362 0.00847938 70 54 90
-47.2165 4.68861 0.0227983 15 56 39
-47.156 0.42978 0.00610179 60 54 82
-47.0898 -3.0822 0.0088317 61 52 83
-34.26 -0.176761 0.00524011 67 52 83
-52.8252 -2.40384 0.00611843 62 62 88
-52.7565 -6.59117 0.00667866 77 56 95
-52.6187 -15.0933 0.00946475 84 56 94
-52.6878 -10.9771 0.00940474 83 55 98
-53.3264 2.32847 0.0102256 51 68 88
-53.2287 -2.06701 0.00613074 63 63 89
-53.1627 -6.45601 0.00671501 75 59 95
-53.0926 -10.8448 0.0081449 83 56 99
-53.0252 -13.6821 0.0112918 85 54 95
-52.9627 -18.071 0.0138125 92 44 104
-36.3356 2.12374 0.0102859 56 47 76
-36.2884 -1.52779 0.00647797 55 52 71
-35.4778 -2.47349 0.00658883 60 53 71
-35.5364 2.12927 0.0143181 54 46 70
-55.5264 -7.53422 0.00704928 76 58 96
-55.4592 -11.9935 0.00871266 87 56 100
-55.3885 -16.3798 0.0112163 91 48 100
-55.5929 -3.14854 0.0054532 64 64 90
-55.6547 1.23866 0.0229836 50 73 91
-57.8867 -7.80638 0.00615916 73 58 91
-57.8223 -12.056 0.00719144 86 55 99
-57.7496 -16.3068 0.00835192 91 48 104
-57.9533 -2.3973 0.0137066 59 67 90
-58.0269 1.83074 0.0159504 19 127 69
-43.1933 3.96613 0.0102251 55 53 79
-43.1047 -0.312018 0.00737764 63 52 84
-43.2404 -1.66018 0.00729632 61 47 80
-43.3093 2.58762 0.00660217 54 48 79
-46.2078 -2.33709 0.00689729 58 51 85
-46.2775 2.04828 0.00686875 58 56 83
-59.5067 -7.7363 0.00530539 196 152 190
-59.3692 -16.5107 0.00830895 91 47 100
-59.4415 -12.126 0.00840642 94 48 99
-59.578 -4.90574 0.014137 186 175 192
-52.8958 2.65829 0.0162045 51 66 89
-52.8232 -1.73023 0.00579176 61 63 88
-52.7571 -6.18404 0.0066798 75 58 93
-52.6926 -10.5671 0.00899131 84 55 97
-52.6211 -14.9641 0.00885836 83 56 91
-33.5189 -1.59414 0.00533857 59 49 74
-42.2262 -0.515905 0.00638956 61 48 80
-45.8044 -1.79726 0.00677817 60 51 82
-45.4644 -2.40485 0.00807145 57 50 78
-45.8697 2.45375 0.00696703 57 54 81
-46.208 0.902944 0.00681575 61 55 84
-46.1438 -3.21327 0.00829438 59 49 84
-34.3985 -2.13478 0.00603158 55 50 72
-37.0308 -2.07125 0.00732147 60 50 71
-36.7582 -2.40485 0.00679047 59 51 71
-37.093 2.32502 0.0208756 60 50 77
-46.6149 -0.246711 0.00631036 57 52 82
-46.5452 -5.91565 0.00916617 51 102 68
-46.6809 3.99226 0.020476 54 54 82
-51.0708 -1.52862 0.00599432 62 61 92
-50.9318 -10.3037 0.0105626 58 109 73
-51.0037 -5.91526 0.00776282 72 56 92
-39.5258 1.84561 0.00535943 59 48 78
-39.4588 -2.53926 0.00799116 60 49 75
-54.2421 -2.33741 0.0056483 60 64 89
-54.1752 -6.59319 0.00727412 74 58 94
-54.3247 1.91072 0.0205991 50 71 91
-36.2869 -0.919611 0.00676582 56 46 70
-36.3504 3.68296 0.0160744 51 48 68
-58.2925 0.491668 0.0245142 34 79 73
-58.2307 -3.90609 0.0100928 62 66 88
-58.1573 -7.80486 0.00580204 75 60 93
-58.0879 -12.1865 0.00800556 88 57 100
-58.0215 -16.5785 0.00878015 91 46 103
-41.4171 -0.0419833 0.00683212 66 52 84
-38.043 0.766629 0.00528936 63 52 79
-37.9748 -3.48789 0.00842783 46 63 57
-37.9784 2.84201 0.0135614 57 46 76
-37.9089 -0.38081 0.00628131 62 49 79
-49.2469 1.23976 0.00513126 58 59 87
-49.1796 -3.01327 0.00718126 64 58 86
-49.1067 -7.53636 0.00794507 73 56 89
-44.9254 -3.7544 0.00801537 57 52 81
-44.9973 0.0247245 0.00677338 58 51 85
-45.0424 4.28532 0.0138353 50 55 76
-43.2973 3.82598 0.0217696 55 51 80
-43.2424 -0.447606 0.00806088 58 51 83
-43.1716 -1.93409 0.00684229 59 46 82
-43.24 2.45496 0.00618966 55 49 77
-57.9322 -1.45864 0.0102868 54 69 88
-57.8204 -10.8425 0.00786106 81 55 97
-57.8892 -6.5919 0.00637363 72 58 91
-57.748 -15.3645 0.00936527 95 50 107
-55.3384 0.81104 0.0180387 54 72 92
-55.2555 -3.55455 0.00584191 64 66 91
-55.188 -6.92464 0.00616234 75 59 95
-55.1167 -11.316 0.00869015 84 55 99
-55.0478 -15.699 0.00991625 89 51 102
-44.5896 2.58856 0.00728736 56 50 78
-44.5206 -1.93476 0.00687302 63 49 85
-53.0193 2.94259 0.0102255 47 68 88
-52.8924 -5.57718 0.00659291 71 60 93
-52.7567 -14.1474 0.0113856 82 55 90
-52.8245 -9.96331 0.00968885 82 55 97
-52.9591 -1.46182 0.00654404 63 65 90
-58.8336 -2.60121 0.00973205 57 66 87
-58.7654 -6.9954 0.00561215 70 59 89
-58.6289 -15.2926 0.00925431 90 50 101
-58.6975 -10.9122 0.00834708 81 53 95
-56.5366 -8.07532 0.00682795 78 57 96
-56.4726 -12.4638 0.00702679 87 52 99
-56.4035 -16.5836 0.00961567 91 46 103
-56.6049 -3.34193 0.0135891 61 65 90
-52.1494 -2.06913 0.00574542 62 62 88
-52.0841 -6.4588 0.00706653 75 58 95
-52.0136 -10.8499 0.00965333 83 62 95
-51.9485 -12.059 0.00931407 79 62 87
-51.8749 -16.4427 0.0104569 60 82 74
-52.2137 2.32405 0.019687 51 66 88
-33.9233 -1.32541 0.00559313 59 49 74
-59.9102 -5.78442 0.0136424 181 157 179
-59.8464 -10.0342 0.00705841 249 146 227
-59.7775 -14.8957 0.00832258 216 126 198
-42.9707 0.0893738 0.00641071 62 52 86
-56.9275 2.42618 0.0136793 38 81 85
-56.808 -6.65722 0.0064303 73 59 93
-56.7449 -11.0457 0.00728012 82 53 97
-56.6739 -15.1613 0.00879747 89 49 99
-56.8756 -1.92634 0.014441 56 67 89
-43.3774 2.52119 0.00644505 57 49 79
-43.3059 -3.8225 0.00749354 37 93 62
-48.1664 3.06224 0.00493026 51 56 85
-48.0975 -1.3247 0.00659538 61 55 83
-48.0316 -5.44404 0.00862416 68 53 86
-33.6581 -1.1228 0.00630349 60 49 79
-33.9262 -0.0437381 0.00692222 61 50 76
-57.6106 2.04454 0.0135547 21 124 68
-57.4806 -6.72697 0.0060877 73 59 94
-57.4137 -11.1122 0.00793629 82 55 98
-57.3492 -15.5686 0.00932028 92 49 105
-57.5601 -2.34412 0.0137332 54 66 90
-34.1292 0.632202 0.00653979 59 47 81
-34.0593 -3.75512 0.00650411 63 112 67
-34.1289 -0.515385 0.00549171 67 52 83
-34.4655 -3.68941 0.0064193 65 108 72
-34.532 0.566055 0.00721662 63 50 80
-35.0043 -3.14893 0.00579723 60 56 68
-35.0721 1.10498 0.00640568 56 45 75
-57.4204 -16.3082 0.00870851 89 46 102
-57.4869 -12.062 0.00817831 85 53 98
-57.5475 -7.80355 0.00750818 73 58 91
-57.6175 -3.54943 0.0145027 62 65 90
-54.9967 1.76372 0.0183702 51 74 92
-54.9182 -2.13631 0.00537418 62 65 90
-54.8524 -6.5253 0.00652383 75 59 90
-54.7808 -10.9135 0.00825231 84 55 101
-54.7215 -15.3025 0.00991469 90 52 103
-36.9637 -3.48713 0.00649967 54 59 60
-36.8265 -0.987582 0.0061602 57 48 72
-37.0304 0.90198 0.00553558 60 49 79
-37.269 3.29079 0.0165129 55 51 78
-37.2316 -0.852764 0.0059844 56 46 70
-38.7847 0.63171 0.00545081 58 47 77
-38.7168 -3.68725 0.00793249 47 100 59
-38.5826 -3.0098 0.00661963 59 51 73
-38.6491 1.23937 0.00565682 60 49 81
-39.2567 1.03575 0.00640915 60 47 80
-39.19 -3.2162 0.00774447 59 52 71
-41.7606 4.06862 0.00974439 46 50 75
-41.6866 -0.784913 0.00677757 61 47 80
-44.0505 -2.53766 0.0076528 62 46 82
-44.119 1.7103 0.00633379 57 51 79
-44.4273 3.67154 0.0143345 49 49 75
-44.3867 -2.26964 0.00858621 59 46 79
-44.5222 -2.00019 0.00702811 62 48 82
-44.5895 2.11802 0.00640717 57 51 79
-53.096 1.19071 0.0145141 54 68 95
-53.0266 -4.09355 0.00618842 70 64 92
-52.9591 -8.47985 0.00826239 78 56 93
-52.8952 -12.6011 0.0104969 87 56 98
-52.8177 -16.9881 0.0107279 87 49 97
-44.7928 -1.66396 0.00679578 60 48 80
-44.8602 2.4532 0.00663524 57 51 79
-48.3715 1.77824 0.00568836 55 56 82
-48.2341 -6.72514 0.00777998 70 56 88
-48.3058 -2.47371 0.00814666 63 54 85
-48.437 1.84639 0.0057848 56 57 82
-48.3031 -6.93176 0.0085043 67 57 83
-48.3718 -2.40902 0.00850074 62 53 84
-49.314 2.18277 0.00536747 53 59 81
-49.1829 -5.84665 0.00912286 69 53 89
-49.2469 -1.5954 0.00682491 62 56 84
-50.0658 3.55862 0.0170327 49 62 88
-49.9255 -4.96803 0.00721226 68 55 88
-49.8539 -9.35427 0.0099657 51 107 64
-49.989 -0.852757 0.00674692 65 60 90
-50.4625 -4.70117 0.00705509 69 58 88
-50.3957 -9.08861 0.0095119 75 60 89
-50.5301 -0.312927 0.00735223 59 58 88
-51.0251 4.39985 0.0195763 48 62 91
-50.8685 -4.16085 0.00751744 66 58 88
-50.7984 -8.41212 0.00936447 76 56 91
-50.9352 0.157679 0.00675891 59 61 89
-52.5538 -2.40574 0.00576752 62 62 88
-52.4884 -6.18482 0.00826015 73 57 94
-52.4179 -10.4392 0.0100033 83 54 97
-52.3528 -14.6945 0.00930982 82 56 93
-52.6258 1.83237 0.0181497 55 67 91
-52.6233 -2.60742 0.0062221 62 62 88
-52.5539 -6.86184 0.00697546 73 59 94
-52.4891 -10.3702 0.00910378 83 54 98
-52.4206 -14.6314 0.00971116 82 56 93
-52.6987 1.9053 0.0181497 53 68 90
-55.187 -1.99986 0.0119655 61 66 90
-55.1183 -6.25368 0.00614998 74 60 93
-55.0527 -10.5039 0.00835972 84 55 99
-55.7268 -3.48339 0.00515801 64 64 90
-55.6604 -7.73782 0.00633081 78 57 96
-55.5917 -11.9894 0.00779493 87 56 100
-55.5243 -16.2434 0.0101559 91 48 100
-55.9911 0.382604 0.0174187 54 75 94
-55.9289 -3.8919 0.00528827 66 63 91
-55.8631 -8.1433 0.00746277 78 57 96
-55.794 -12.3965 0.00909559 88 52 98
-55.7281 -16.1772 0.00978244 92 47 104
-41.3501 -2.67831 0.00894435 60 46 81
-41.4179 1.57885 0.00720324 57 50 81
-39.1898 -1.18981 0.00654631 59 48 77
-39.2451 3.06758 0.0197386 52 46 74
-48.8416 3.47094 0.0186337 51 56 86
-48.709 -4.29872 0.00841043 66 55 85
-48.6388 -8.54967 0.00900579 49 111 64
-48.7757 -0.785064 0.00708015 61 57 84
-39.7971 -0.109666 0.00598797 62 49 79
-47.6342 -6.52096 0.00790044 62 62 77
-47.6986 -1.2586 0.00751008 62 53 86
-40.6273 3.65559 0.0150063 52 47 77
-40.5391 -0.581829 0.00705359 60 49 81
-42.0234 0.292247 0.00719102 62 51 84
-39.3251 1.375 0.0060719 62 49 79
-39.2591 -3.07898 0.00774521 62 48 76
-41.5535 0.22626 0.00651645 60 53 84
-54.9762 2.01054 0.017999 49 71 90
-54.8482 -6.59165 0.00704462 75 58 90
-54.7833 -10.8496 0.00753377 84 55 101
-54.7143 -15.0925 0.0105036 91 53 104
-54.9155 -2.33672 0.0059912 61 66 90
-56.0902 3.4545 0.00974502 14 117 67
-55.9983 -1.13061 0.00901144 54 69 92
-55.9304 -5.37602 0.00566542 69 62 93
-55.8656 -9.8988 0.00670518 81 56 98
-55.7921 -14.1557 0.010866 91 53 100
-48.6419 -3.2131 0.00747435 61 55 83
-48.5666 -7.60192 0.00958057 64 83 80
-48.7072 1.16958 0.00636962 58 58 84
-33.7223 -3.68792 0.00639216 54 86 60
-39.7435 2.83743 0.00510807 53 47 75
-39.6633 -1.39248 0.0061738 62 47 77
-52.0832 -3.82478 0.00690797 67 61 89
-52.0177 -8.07428 0.00750442 78 56 94
-51.9491 -14.823 0.0121477 71 65 84
-52.2028 4.96663 0.0195633 250 251 250
-52.1489 0.698865 0.00528924 58 65 94
-44.1169 1.37532 0.00689301 58 52 80
-44.0493 -3.0132 0.00715676 56 50 78
-43.5107 -1.79904 0.00741886 59 48 81
-43.5757 2.59113 0.00653429 55 51 78
-33.4518 -1.46065 0.00559405 60 47 75
-39.1217 0.294153 0.00584907 61 52 81
-54.6684 4.61059 0.0246253 27 117 84
-54.5795 0.357964 0.0141934 55 70 93
-54.4436 -8.14365 0.00806953 78 57 96
-54.3738 -13.009 0.0086809 87 54 99
-54.3117 -17.2629 0.014244 90 45 102
-54.5116 -3.88779 0.00726283 64 64 90
-56.2013 -4.70065 0.00578334 69 63 91
-56.0661 -13.2086 0.00862161 86 53 98
-56.1341 -8.81976 0.0079015 77 56 95
-56.2651 -0.314308 0.0165244 52 71 90
-56.1466 -0.118794 0.0176555 54 71 91
-56.0646 -4.36207 0.00536369 69 65 92
-55.9979 -8.4119 0.00762532 79 57 96
-55.8668 -17.1946 0.0103327 94 43 102
-55.9302 -12.6654 0.00901448 86 53 98
-51.743 -2.40537 0.00593802 65 61 89
-51.6073 -11.5149 0.00855273 60 108 73
-51.838 1.96114 0.0208634 56 64 93
-51.5441 -15.6328 0.0129094 57 115 67
-51.6781 -7.13027 0.00849031 75 58 94
-34.1947 -0.650613 0.00521115 66 52 81
-35.342 -3.41735 0.00653907 56 57 61
-35.4176 1.10139 0.0120283 58 45 75
-36.8939 -3.21705 0.0072117 57 55 65
-36.9708 1.03965 0.00990644 61 52 77
-37.5008 -0.176544 0.00531221 60 48 76
-39.6613 0.902343 0.00620857 57 46 78
-39.5964 -3.35047 0.00873958 57 55 76
-39.7985 1.6445 0.00551308 59 48 78
-39.7284 -2.74307 0.00719527 61 45 75
-41.4173 2.99562 0.00559866 53 48 78
-41.3494 -1.3945 0.00696552 63 48 81
-42.2272 -0.246331 0.00758214 62 48 82
-42.3625 0.497796 0.00622585 60 52 83
-42.2925 -3.75379 0.00788614 39 93 61
-42.7775 4.47684 0.0161982 25 85 50
-42.7012 0.227228 0.00688973 62 52 81
-42.8336 -0.649016 0.00687098 59 48 80
-44.8577 2.38806 0.00711854 57 51 79
-44.7932 -2.13776 0.0097998 56 47 79
-44.9266 2.18464 0.0064428 57 51 80
-44.8586 -2.06797 0.00903718 57 48 79
-36.1472 0.493152 0.00871053 62 49 77
-36.0862 -3.89006 0.00635204 43 114 50
-46.5516 4.08545 0.0168752 53 53 82
-46.4804 -0.178586 0.00824092 57 52 83
-46.4133 -4.70014 0.00954539 64 50 86
-47.0022 4.55746 0.0183944 12 53 42
-46.9521 0.0241926 0.00708162 60 53 81
-46.8847 -4.22598 0.00992332 62 51 83
-47.1598 3.67203 0.014684 52 56 85
-47.0918 0.159756 0.0074585 59 53 81
-47.0182 -4.09423 0.00894496 63 52 84
-49.7195 -5.57764 0.00831627 70 55 88
-49.7872 -1.32543 0.0074373 63 59 86
-50.665 -4.63252 0.00775026 69 57 91
-50.5935 -8.68249 0.00905328 77 56 89
-50.7954 4.15906 0.0171041 50 64 93
-50.7319 -0.378419 0.00671446 58 60 86
-51.1384 -4.49907 0.00738742 68 57 87
-51.0693 -8.7489 0.00868487 79 55 92
-51.2047 0.0922714 0.00590022 57 63 89
-51.2849 4.35328 0.0171243 44 63 92
-56.9314 -3.28743 0.0116833 61 65 90
-57.0088 0.991394 0.0147399 48 71 87
-56.8733 -7.5367 0.00646253 74 59 92
-56.8074 -11.8574 0.0083056 86 55 98
-56.7395 -16.1096 0.010162 93 45 103
-52.4867 -3.48806 0.00747122 68 61 92
-52.4204 -7.73669 0.0085335 77 56 95
-52.3525 -11.988 0.00851564 85 54 95
-52.2805 -16.2379 0.0100876 85 58 93
-52.5235 1.40446 0.0213028 55 68 94
-50.8669 -1.59583 0.00636659 61 61 87
-50.7981 -5.84673 0.00724008 71 56 89
-50.9347 1.91452 0.00522934 57 61 88
-50.7316 -10.3747 0.00960932 54 111 66
-42.0923 1.91346 0.00615487 57 49 78
-42.0263 -2.33948 0.00830915 59 46 81
-53.4312 -2.13553 0.00573692 63 63 89
-53.3624 -6.38813 0.00702646 74 59 93
-53.2989 -10.9797 0.0111587 83 54 97
-53.2321 -15.2351 0.0100512 91 55 98
-53.5023 2.39598 0.0215293 49 69 88
-54.2555 1.02254 0.0183845 54 69 92
-54.0398 -1.25831 0.00603111 59 66 92
-54.1738 -3.21605 0.00563016 64 64 90
-53.9707 -5.77808 0.00772511 72 61 93
-53.9061 -10.0317 0.00752917 82 55 98
-53.8359 -14.6298 0.0100456 89 53 99
-54.0995 3.00835 0.0196159 47 70 88
-55.5614 0.0303744 0.0178535 55 70 89
-55.5252 -4.22726 0.0059699 70 63 92
-55.4592 -8.81652 0.00739299 79 57 93
-55.391 -13.0688 0.0102225 87 54 99
-55.3231 -17.5907 0.0113331 94 42 104
-41.8386 3.68949 0.0218398 53 46 78
-41.7546 -0.716761 0.00688607 62 49 81
-38.582 -2.74412 0.00655132 60 50 77
-38.6515 1.50887 0.00573857 58 49 78
-39.4576 -1.5956 0.00626845 61 48 76
-39.5287 2.77987 0.018546 53 45 74
-46.7526 -3.4196 0.00836917 61 50 80
-46.817 0.970827 0.00681964 58 53 83
-36.624 0.430194 0.00523681 59 50 77
-36.5576 -3.48566 0.00749188 52 60 57
-39.1914 -0.244529 0.00669142 61 50 80
-48.1698 0.699079 0.00627232 58 58 84
-48.0974 -3.55164 0.00761482 65 54 84
-51.0836 4.47259 0.0146605 50 65 93
-51.003 -0.0436609 0.00624897 60 61 89
-50.9376 -4.29621 0.00821733 66 57 86
-50.867 -8.34189 0.00778927 76 56 91
-53.5083 2.43559 0.0178497 48 69 88
-53.3665 -6.04955 0.00649586 73 60 90
-53.2972 -10.2314 0.0078909 83 56 99
-53.2233 -14.6143 0.0116828 87 55 94
-53.4337 -1.663 0.00586399 64 64 90
-34.3966 -2.87787 0.00634433 57 53 68
-34.4638 1.97996 0.00600823 56 45 74
-53.096 -2.27046 0.00562163 66 62 89
-52.9595 -9.22614 0.00845877 77 56 89
-52.8917 -13.4775 0.0084905 85 54 95
-52.8188 -17.734 0.0130194 91 43 101
-53.0264 -4.97245 0.00760925 71 60 90
-53.1321 2.01295 0.0212898 52 69 89
-44.3863 -2.54193 0.00901281 60 46 82
-44.4484 3.94897 0.0162893 50 50 76
-49.3821 -2.87955 0.00666487 63 57 85
-49.3132 -7.13176 0.00831033 75 55 90
-49.4496 1.64341 0.00678948 57 59 84
-57.1392 -0.321239 0.0174195 50 70 89
-57.0769 -4.36182 0.00582992 69 65 92
-57.0082 -8.61709 0.00643735 78 56 95
-56.881 -17.3955 0.00912089 92 44 102
-56.9417 -13.1389 0.00947352 92 55 104
-49.1137 -0.919633 0.00675258 61 55 83
-49.0442 -5.17193 0.00743115 69 54 85
-49.1784 3.34983 0.0197778 52 56 86
-39.4592 1.509 0.00662277 60 49 79
-39.3924 -2.87676 0.00725975 60 47 73
-55.5252 -4.49776 0.00594929 69 63 91
-55.3882 -12.7955 0.00839426 87 56 100
-55.3267 -17.3228 0.00958344 94 43 102
-55.6712 4.2761 0.0163373 17 122 79
-55.5747 -0.225232 0.0168606 55 70 91
-55.4591 -8.5496 0.00780318 79 57 95
-47.4913 2.31967 0.00605876 57 56 83
-47.4247 -1.93197 0.00804721 61 50 81
-47.3599 -6.52299 0.00785722 60 95 77
-35.4741 1.10638 0.0126514 57 44 74
-35.4084 -3.28315 0.00714036 58 57 63
-37.84 -0.920728 0.00616555 60 52 78
-35.2589 3.0591 0.00796422 52 46 74
-35.2066 -0.852694 0.00523677 61 51 76
-52.3522 -0.98662 0.00545414 61 64 89
-52.0778 -18.0548 0.0106217 85 55 89
-52.4085 3.39521 0.0195768 47 64 90
-52.1486 -13.6764 0.0105462 78 59 89
-52.2198 -9.28771 0.00863107 79 57 95
-52.2838 -5.37373 0.00792784 70 59 90
-47.6945 1.50995 0.0056073 58 55 82
-47.6291 -0.649822 0.00647898 60 56 83
-47.5534 -4.90014 0.00976304 67 51 86
-36.4893 0.498495 0.00540224 59 49 76
-36.4235 -3.8884 0.00781817 44 111 50
-50.9344 -5.17458 0.00688026 69 56 92
-50.8663 -7.47303 0.00887527 77 55 91
-51.078 3.56941 0.020267 49 63 89
-51.0026 -0.78471 0.00699896 60 60 88
-36.8961 3.48192 0.0163512 53 48 70
-39.9318 -1.45914 0.00639356 61 46 79
-40.0141 3.03837 0.0105452 53 47 75
-35.613 -0.111496 0.00544221 63 48 77
-53.7043 -2.87683 0.00567931 63 64 90
-53.6363 -7.12842 0.00723763 74 57 92
-53.5689 -11.7168 0.00806697 86 55 97
-53.5023 -15.9758 0.0107941 90 53 97
-53.7704 1.64918 0.0200838 51 71 90
-41.3575 3.39637 0.0221685 52 48 77
-41.2817 -1.12287 0.00689972 65 50 81
-52.8919 -2.33808 0.00589371 62 62 88
-52.6898 -15.3001 0.010213 84 56 95
-52.9292 1.81013 0.0213028 52 69 90
-52.8227 -6.72418 0.00800449 77 56 95
-52.7549 -10.9054 0.010053 84 56 99
-53.5664 -8.75037 0.00802385 81 57 93
-53.5041 -12.9998 0.00876644 86 53 96
-53.4331 -17.5261 0.0109746 92 45 101
-53.6341 -3.62092 0.00710697 67 62 89
-53.7007 0.637884 0.0217793 55 69 94
-51.8555 1.21213 0.00453481 55 67 92
-51.8141 -2.87945 0.00619827 65 60 92
-51.7455 -7.26959 0.00853117 75 55 94
-51.6713 -11.9917 0.0104549 61 107 72
-51.6117 -16.3822 0.0107614 65 113 73
-38.6508 -1.05523 0.00597484 61 50 78
-38.7165 3.17958 0.0169549 53 49 76
-56.5344 2.74445 0.0246357 38 79 76
-56.4771 -1.66533 0.0103522 57 68 90
-56.4025 -5.78015 0.00664697 72 62 95
-56.3359 -10.1695 0.00667903 81 56 97
-56.266 -10.5757 0.00736866 84 56 99
-56.1999 -14.9602 0.00924354 89 51 100
-53.4382 0.769271 0.0144054 56 69 92
-53.3661 -3.62091 0.00657561 67 63 90
-53.2982 -8.34546 0.00936751 77 56 95
-53.2344 -12.7317 0.0102441 90 59 103
-53.1637 -16.852 0.0114395 89 50 97
-53.532 4.87167 0.0149254 240 250 246
-58.028 -1.25524 0.0146911 54 69 88
-57.9562 -5.51049 0.0053945 68 62 90
-57.8879 -9.02376 0.00742617 78 57 93
-57.8206 -13.2718 0.00774124 87 54 99
-50.7982 1.98182 0.00530612 56 62 88
-50.732 -2.5398 0.00714342 67 59 88
-50.6628 -6.79141 0.00903015 73 56 92
-33.5183 -0.650758 0.00688068 64 49 80
-42.0225 -1.72796 0.00817893 62 47 82
-42.0934 2.65659 0.00604101 54 48 76
-34.6644 2.52212 0.00675938 57 47 74
-34.5997 -1.86518 0.00547312 55 47 69
-48.0333 -1.73123 0.00709551 62 55 86
-47.9608 -5.98264 0.0090285 71 54 88
-48.1005 2.52382 0.00650191 54 56 81
-39.728 -1.46113 0.00677064 62 47 78
-39.7962 2.79238 0.00481395 54 48 76
-56.8125 -1.12134 0.0149559 54 69 89
-56.7396 -5.50997 0.00612805 71 61 91
-56.6751 -9.89731 0.00715046 81 56 96
-56.6063 -14.2843 0.00969624 89 52 101
-59.508 -3.95562 0.00978436 175 166 178
-59.4399 -8.34509 0.00610752 187 139 183
-59.3042 -17.1213 0.00806074 95 49 102
-59.3711 -12.7264 0.00917777 91 54 101
-58.5467 -0.946739 0.00974515 50 71 89
-58.4984 -5.30939 0.0141477 67 62 87
-58.3587 -5.77942 0.00513504 67 61 87
-58.2919 -9.89811 0.0067008 78 56 94
-58.226 -14.2864 0.00952517 101 59 112
-56.7043 3.04508 0.00974504 17 120 68
-56.6013 -1.32624 0.0109328 54 69 89
-56.4687 -10.1661 0.0082274 83 56 99
-56.538 -5.78112 0.00616647 71 62 93
-52.8924 -6.72446 0.00680188 77 57 95
-52.8241 -10.9784 0.00871442 83 56 99
-52.7593 -15.2991 0.0114087 86 55 97
-52.9595 -2.47292 0.00648792 63 62 88
-33.9253 -1.59661 0.00573129 59 48 70
-34.5323 -1.93423 0.00560114 54 49 69
-34.601 2.45141 0.00663426 57 47 73
-56.7391 -10.4402 0.00980648 82 54 95
-56.9388 1.8352 0.0195001 48 74 87
-56.6739 -14.6892 0.00933113 90 50 102
-56.8093 -6.18512 0.00613726 72 60 90
-56.8817 -2.40707 0.012159 59 67 90
-55.8635 -8.54959 0.00768419 79 57 96
-55.7905 -12.8003 0.011312 87 54 99
-55.9305 -4.02335 0.00657087 68 64 92
-56.0017 0.212121 0.0193635 55 73 93
-43.3067 -2.20414 0.00708061 56 44 82
-43.376 0.901302 0.00650325 59 53 81
-33.5211 -0.584462 0.00520435 65 50 81
-37.3676 -1.18876 0.00577954 59 50 77
-37.4552 2.31889 0.0135614 58 52 76
-37.8709 3.76142 0.0102249 52 49 70
-37.771 -0.514792 0.00592784 60 49 79
-38.182 3.04447 0.0146532 57 47 74
-38.1122 -1.19309 0.00626889 62 57 80
-38.5134 -0.244249 0.00622897 64 51 80
-38.5778 4.02204 0.0162012 57 58 76
-38.651 -0.651685 0.00581271 62 50 80
-38.726 3.58889 0.0196427 56 50 76
-41.418 -1.66048 0.00711353 64 48 84
-41.4839 3.19708 0.00507686 54 47 78
-42.1589 -0.92188 0.00708237 62 47 83
-43.5096 0.494529 0.00672626 62 51 81
-43.4412 -3.62382 0.007301 34 91 56
-43.9165 -3.2139 0.00732501 47 62 69
-43.9817 1.03678 0.00678883 59 52 83
-44.9276 1.91416 0.00676832 57 51 79
-44.8616 -2.33803 0.00859827 58 49 79
-36.4379 2.12374 0.0102859 56 48 76
-36.3558 -2.13483 0.00675506 60 51 72
-45.1969 -1.86596 0.00743562 58 49 80
-45.2633 2.04932 0.0065551 57 53 80
-55.7828 1.10021 0.0102867 51 73 91
-55.7284 -3.75969 0.00575638 65 65 91
-55.6634 -8.00996 0.00694635 78 57 96
-55.5902 -12.2586 0.0106434 88 55 100
-55.5259 -16.5189 0.0131773 91 46 101
-47.2908 -1.86712 0.00677368 60 52 81
-47.2218 -6.38928 0.00779125 61 94 74
-47.3562 2.38683 0.00578153 56 56 82
-46.2639 3.45434 0.0102863 53 54 80
-46.2074 -0.786334 0.00694711 57 50 84
-46.1432 -5.30742 0.0091944 53 90 79
-46.3454 3.87486 0.0173455 53 53 80
-46.28 -0.98455 0.00789401 58 51 83
-46.2082 -5.24225 0.00987428 54 75 82
-48.909 1.57755 0.00512193 55 59 86
-48.7748 -6.93072 0.00769335 73 55 88
-48.8436 -2.54266 0.00768988 64 55 84
-49.0449 -6.52191 0.00813501 71 55 89
-49.1803 1.97996 0.00541388 54 58 84
-49.1138 -2.27128 0.00762663 63 56 87
-49.3166 2.72577 0.00527039 52 56 81
-49.179 -6.38865 0.00811284 70 55 89
-49.2471 -2.13654 0.0074289 62 56 84
-38.8424 4.28669 0.0162012 26 75 44
-38.7862 -0.111095 0.00697138 65 50 81
-49.3827 2.11681 0.00609774 55 59 83
-49.2463 -5.91287 0.00885696 70 55 89
-49.3151 -2.13465 0.00692419 62 56 84
-49.9906 2.72535 0.00526639 52 64 88
-49.784 -5.24345 0.00820993 70 55 88
-49.8544 -5.77979 0.00810043 70 55 86
-49.7192 -9.49248 0.0102049 52 108 64
-49.9227 -1.52828 0.0066964 63 56 87
-50.2583 -5.31157 0.00759222 67 56 86
-50.1907 -9.55918 0.0101654 54 106 67
-50.4207 4.31465 0.0193992 51 61 91
-50.3291 -1.05609 0.00644535 61 59 85
-50.3982 -5.24093 0.00843196 69 58 88
-50.331 -8.74648 0.00981827 74 57 90
-50.538 3.55326 0.018105 52 64 88
-50.4624 -0.98596 0.0064436 61 59 86
-53.6341 -1.99957 0.00555187 63 63 89
-53.5655 -6.05183 0.00646447 70 59 89
-53.4994 -10.305 0.00809495 82 56 95
-53.4351 -14.827 0.00971542 86 54 97
-53.7061 2.24402 0.0193077 49 70 90
-54.5851 -0.980355 0.0119861 61 68 93
-54.5115 -5.23959 0.00659171 71 62 92
-54.4477 -9.4922 0.00716458 82 57 97
-54.375 -13.8122 0.00908123 91 53 100
-54.3074 -18.0651 0.0122109 91 43 101
-54.6526 3.2576 0.0163373 49 70 89
-41.7567 -1.93485 0.00814131 60 47 83
-41.8235 2.45243 0.00583413 54 48 76
-38.6502 -0.245206 0.00631032 64 51 81
-38.7334 3.98595 0.0167373 56 58 75
-38.6493 1.5776 0.00511476 58 48 77
-38.5808 -2.81133 0.00662539 60 50 75
-50.6667 -6.05315 0.00837624 71 56 87
-50.7896 2.7222 0.0170604 52 64 88
-50.5968 -10.5051 0.0105242 53 110 67
-50.7325 -1.66386 0.00724209 63 60 87
-36.6909 -1.86529 0.00611187 59 50 71
-36.7482 2.38645 0.0187567 57 47 74
-43.649 4.28261 0.017544 55 65 82
-43.5779 -0.582206 0.00757212 60 51 82
-43.6439 1.30553 0.00673215 57 50 81
-43.5812 -3.0149 0.00835208 55 46 78
-51.1372 -0.785265 0.00599682 60 60 86
-51.0737 -5.17353 0.00897849 70 56 91
-51.004 -9.29369 0.00901263 77 55 90
-51.1849 3.9571 0.0162905 48 63 92
-48.1647 -4.09347 0.00777076 69 54 87
-48.2331 -0.178297 0.00691361 59 54 84
-49.3815 -6.25253 0.00754078 70 54 90
-49.5176 2.25146 0.00605676 55 59 85
-49.4488 -2.0012 0.00754829 63 57 85
-51.7393 2.97849 0.0195377 50 65 88
-51.6072 -6.11604 0.00811046 72 57 90
-51.5383 -10.2393 0.00991155 77 62 88
-51.4699 -14.6214 0.0116605 51 112 62
-51.6785 -1.73026 0.00669453 61 60 91
-40.0012 -1.53007 0.00642422 61 46 79
-40.0681 2.72476 0.00490457 54 49 77
-43.3752 0.765801 0.00621026 60 53 81
-43.307 -2.06767 0.00802171 57 45 83
-35.7437 0.169291 0.01211 62 47 76
-52.6223 1.29933 0.0145814 56 68 94
-52.3463 -16.3055 0.0105393 84 55 94
-52.4173 -12.057 0.0107656 86 54 96
-52.4908 -7.80742 0.00816639 78 56 95
-52.5551 -2.94706 0.00667245 65 62 89
-56.9395 -7.60279 0.00638924 75 60 93
-56.8745 -11.8523 0.00904126 85 54 98
-56.8061 -16.1784 0.0101471 91 46 103
-57.0639 0.889431 0.0221556 50 73 90
-57.0088 -3.35143 0.0148891 61 65 90
-47.2245 -2.20106 0.00675492 61 52 84
-47.1536 -6.45521 0.00806671 53 100 67
-47.2891 2.0476 0.00601722 57 57 84
-44.2518 2.18423 0.00578495 57 51 79
-44.1883 -2.0718 0.00762434 62 48 84
-55.6585 -2.4804 0.0126189 62 66 91
-55.759 1.74667 0.0177328 50 73 89
-55.5924 -6.99387 0.0073572 74 59 92
-55.5269 -11.2469 0.0082853 83 56 99
-55.4588 -15.8372 0.00989958 93 49 102
-55.4542 -15.7727 0.00997017 93 49 102
-55.5249 -11.3111 0.00761986 84 56 99
-55.5933 -6.92585 0.00605561 73 59 92
-55.6478 -2.54719 0.007564 62 66 91
-48.7072 -2.33966 0.00710979 62 56 84
-48.6409 -6.72269 0.00780579 71 54 88
-48.7773 1.57696 0.006554 55 59 86
-54.5241 1.84964 0.0214624 49 72 90
-54.4442 -2.54122 0.00649026 64 65 90
-54.3089 -11.1116 0.00789552 88 57 99
-54.2429 -15.2325 0.0114261 91 52 99
-54.1121 -15.1617 0.00992994 90 53 97
-54.3765 -6.72705 0.00708404 74 59 92
-54.4361 2.00227 0.0185735 49 72 91
-54.3766 -2.60745 0.00619653 63 65 88
-54.3096 -6.86178 0.0079829 74 59 92
-54.1707 -15.6306 0.00966606 90 52 98
-42.97 -2.6755 0.00857826 55 45 82
-43.0375 1.577 0.00650425 60 51 80
-47.6971 4.06862 0.00974465 51 57 83
-47.6254 -3.21279 0.00867309 63 54 85
-47.5614 -7.46928 0.00929064 45 106 64
-47.6284 -3.61961 0.00786526 65 54 88
-47.6871 4.48257 0.0156485 37 64 67
-48.0159 3.32802 0.0170772 54 60 85
-47.9667 -1.05638 0.0068332 60 54 82
-47.8984 -4.96877 0.00756922 68 53 86
-37.8425 -3.95561 0.00718857 44 109 53
-37.9081 0.295198 0.0063412 62 51 76
-58.3519 -2.87579 0.0137815 59 65 89
-58.2929 -7.40241 0.00593622 70 59 91
-58.224 -11.656 0.00692167 82 53 97
-47.799 3.75784 0.0154433 52 58 82
-47.691 -4.7635 0.00902967 67 52 85
-47.7624 -0.380212 0.00747825 60 56 83
-54.5735 -0.787775 0.00837648 61 68 94
-54.6555 3.59575 0.0184775 47 73 87
-54.5146 -4.90324 0.00588086 68 64 91
-54.4461 -9.29385 0.00868948 82 57 96
-54.377 -14.0242 0.0082787 91 52 99
-52.5543 -1.66397 0.00550897 62 62 90
-52.4871 -6.92833 0.0077384 76 59 94
-52.4179 -11.3064 0.00820884 82 55 98
-52.3554 -15.4337 0.00918648 83 56 92
-52.6143 2.72185 0.0167975 50 66 87
-50.1912 -1.12317 0.00634155 61 58 85
-50.1256 -5.51242 0.00701647 66 55 90
-50.2473 3.0064 0.0199852 51 61 87
-55.7313 -2.06943 0.0114446 60 66 89
-55.7961 1.55545 0.0209102 51 72 91
-55.662 -6.45447 0.00605401 72 60 90
-55.5898 -10.5697 0.0071882 84 56 98
-55.5289 -14.962 0.0080549 89 51 102
-47.8287 -5.6492 0.00895249 70 51 84
-47.963 2.92839 0.00678325 52 57 84
-47.8963 -1.39161 0.00743491 62 55 86
-36.3356 2.53316 0.0102859 58 47 73
-36.286 -1.93421 0.00627268 59 50 71
-45.1296 2.32051 0.00679627 57 51 79
-45.0615 -1.93151 0.00735948 58 49 80
