ply
format ascii 1.0
comment Created by Open3D
element vertex 1256
property double x
property double y
property double z
property uchar red
property uchar green
property uchar blue
end_header
-23.4606 1.63961 0.00996778 72 59 105
-23.395 -2.73859 0.00709816 72 60 100
-41.35 -2.81068 0.00714196 66 50 95
-41.418 1.44119 0.00567967 63 54 99
-21.9773 0.900718 0.0103714 70 59 102
-23.127 2.5907 0.0104966 67 54 100
-23.0609 -1.59609 0.00815047 73 60 103
-1.18693 -14.8945 0.00822159 136 131 138
-1.38923 -1.12508 0.0102425 53 143 107
-1.45788 3.25992 0.00883055 57 121 107
-35.2076 -2.27077 0.00561922 64 56 93
-35.2671 2.28929 0.0147793 65 56 101
-35.3283 2.25169 0.01662 64 55 100
-35.2746 -1.99941 0.00552855 65 57 95
-6.78986 -5.7142 0.00675929 84 73 113
-9.55838 -4.76831 0.00670485 78 70 107
-9.49572 -9.04141 0.0129362 18 56 45
-1.59401 2.3147 0.00910853 50 128 102
-1.66103 6.57226 0.00696583 68 48 107
-4.35994 -2.06917 0.00963821 78 150 130
-23.6636 -0.044331 0.0101097 72 61 104
-45.9419 3.87255 0.0186647 22 106 66
-45.4673 -0.111189 0.00733534 65 56 101
-45.4008 -4.36168 0.00746158 44 88 76
-45.806 -4.63553 0.00811399 37 101 67
-45.874 -0.382532 0.00691296 65 56 101
-34.1943 -4.70332 0.00695707 56 135 85
-34.2653 -0.447977 0.00549902 69 56 100
-34.3266 4.07392 0.00733265 42 122 81
-38.2661 3.34244 0.0188267 63 59 94
-38.1789 -1.25636 0.00656161 66 56 92
-6.99141 3.26476 0.00896591 65 55 107
-6.85753 -5.03813 0.00731242 85 74 114
-45.5334 -3.95702 0.00737564 60 48 93
-45.6015 0.42943 0.00623897 63 54 97
-31.1575 -1.8666 0.00570465 71 59 99
-31.2224 2.58781 0.00870556 69 53 100
-30.009 -3.217 0.00577431 70 55 94
-30.0782 1.03499 0.00713518 72 57 102
-21.8429 0.901939 0.00871324 70 59 102
-21.771 -3.35387 0.0077155 74 64 101
-48.8396 -6.72236 0.00831398 64 49 91
-32.1027 3.73635 0.00623696 31 73 63
-32.0342 -0.516601 0.00622521 71 58 101
-7.94729 -8.61725 0.0116802 91 84 117
-9.35825 -8.48056 0.0100537 85 90 109
-9.48776 0.293282 0.00768564 78 65 111
-23.187 -0.243518 0.00830293 71 59 102
-23.2594 4.28148 0.0101933 43 103 77
1.5789 -15.9081 0.00934566 151 141 149
-5.64259 -2.74055 0.00862338 75 71 108
-32.5069 -2.00027 0.0055111 67 56 96
-32.6432 3.86748 0.00850491 43 103 75
-32.577 -0.380179 0.00561919 70 57 100
-43.0375 -1.05537 0.00811132 75 59 106
-5.91271 -3.07981 0.00817581 77 69 110
-23.3966 -2.27038 0.00816801 73 61 101
-23.4626 1.98364 0.00931289 70 57 103
-26.565 -0.246009 0.00782528 76 59 103
-26.4986 -4.50019 0.00598494 50 101 86
-46.6855 1.98021 0.00724114 61 55 95
-46.6161 -2.27156 0.00684223 65 51 94
-45.6686 -3.95852 0.00905839 58 48 91
-45.7356 0.430193 0.00704018 63 54 97
-44.7242 -3.75425 0.00904522 62 44 95
-44.7917 0.633172 0.00621304 63 54 99
-35.5448 -1.79798 0.00591777 64 56 95
-35.6108 2.44513 0.0176765 64 55 100
-6.72328 -9.22043 0.00749228 94 88 116
-6.79094 -4.70124 0.00761506 82 74 115
-41.6205 -4.02526 0.00789826 62 50 93
-41.6856 0.365029 0.00660044 61 51 98
-23.055 -4.29914 0.00730025 42 75 80
-23.1304 -0.111531 0.00833662 72 59 103
-23.1873 4.27804 0.00991265 43 103 77
-45.8052 -2.60761 0.00753528 63 50 96
-45.8694 1.6461 0.00670157 62 55 99
-45.4684 -2.13622 0.00744884 64 50 96
-43.0913 4.17235 0.0135769 28 107 68
-42.9705 -4.96834 0.00777658 34 99 68
-43.0375 -0.716026 0.00783183 76 63 108
-46.0103 -1.52852 0.0082272 60 51 96
-46.075 2.65605 0.00683515 57 51 95
-31.2925 -1.79856 0.00661492 71 59 99
-31.3598 2.31736 0.00840694 69 53 100
-5.573 -7.40198 0.0079497 86 79 113
-5.70928 1.10386 0.00873451 56 70 99
-33.9919 -3.01144 0.00648776 68 58 95
-34.0624 1.10328 0.00624661 70 54 99
-38.5832 1.44179 0.00576433 64 55 100
-38.5122 -2.80737 0.0075239 65 58 89
-38.1387 2.4845 0.0206055 63 54 97
-38.0422 -1.79437 0.00831815 64 58 94
-8.68109 1.64145 0.00783698 71 62 107
-8.75086 6.03216 0.00970336 65 48 102
-49.5826 -7.33255 0.00945573 68 49 91
-23.871 -0.650907 0.00859534 74 62 102
-23.7972 -4.90548 0.00652842 53 139 90
-28.4556 -3.14998 0.00663016 71 56 99
-27.8489 -1.59805 0.00718471 72 60 100
-28.5267 1.44097 0.00852051 76 61 104
-27.9179 2.65773 0.00805283 69 56 102
-33.116 -2.4046 0.00615193 68 58 95
-33.1817 1.84513 0.00699381 69 56 100
-26.704 3.26375 0.00976914 63 56 98
-26.6322 -1.12762 0.00795458 76 66 103
-44.5881 -4.02497 0.00740287 57 46 88
-44.6577 0.227507 0.00629338 61 52 97
-44.5901 -4.09081 0.00880861 55 47 86
-44.6569 0.292184 0.00727377 63 54 97
-35.0039 -2.40523 0.00630577 65 57 94
-35.0715 1.98414 0.00613007 69 56 102
-8.40943 -6.04894 0.00632805 82 72 109
-8.47831 -1.79762 0.00832725 77 68 113
-38.4485 1.50885 0.00589058 65 56 101
-38.3792 -2.74233 0.00691306 63 58 90
-39.5271 -1.93159 0.00718869 66 58 97
-39.594 1.98391 0.006005 62 53 97
-11.3838 0.63619 0.00974519 75 62 108
-24.133 -3.28039 0.00755795 77 65 101
-26.7688 -4.02428 0.0067583 65 59 93
-26.8359 0.224283 0.00850042 76 59 103
-2.60564 -11.9198 0.00714419 114 104 128
-2.74017 -3.41597 0.00968945 69 144 121
-34.9375 -2.61168 0.00692485 67 59 96
-35.0056 1.98203 0.00555727 69 56 102
-35.0051 -2.33883 0.00581775 65 57 94
-35.0724 1.91203 0.00575866 71 55 102
-7.31718 -10.2123 0.0135157 94 95 113
-7.52957 2.31499 0.00828073 71 57 110
-38.4467 1.44146 0.00535236 64 55 100
-38.379 -2.94382 0.00698489 66 59 90
4.00646 -15.5005 0.00884705 103 136 107
-45.9414 -0.446814 0.00776672 64 55 100
-46.0057 3.80268 0.0208223 21 96 61
-45.8719 -4.70288 0.00766346 34 97 66
-31.3601 -2.20332 0.00582358 67 59 98
-31.4284 2.04417 0.00727355 69 56 102
-27.917 2.79675 0.00912403 69 56 102
-28.5243 1.30525 0.00822087 76 61 104
-27.8512 -1.45963 0.00761439 72 60 100
-28.459 -3.01194 0.00638595 72 57 100
-27.7819 2.795 0.00863436 68 55 101
-28.6628 1.30584 0.0080328 76 61 104
-28.592 -3.2145 0.00704504 72 57 100
-27.7155 -1.46569 0.00701099 72 59 99
-39.7983 -1.39433 0.00713848 68 56 96
-25.2169 -4.49879 0.00694127 71 116 109
-25.2861 0.0871434 0.00849843 75 63 103
-23.7996 -4.36261 0.00787461 37 76 71
-23.8699 -0.112151 0.00803535 72 61 104
-33.3857 3.13056 0.00840305 66 54 100
-33.3168 -1.3248 0.00535908 72 60 100
-39.5935 2.59037 0.00509342 63 54 97
-39.5277 -2.54023 0.00654559 65 57 94
-23.33 -3.95734 0.00733846 74 67 101
-23.3941 0.22349 0.00956782 74 61 105
-26.299 -1.79809 0.00718138 79 64 107
2.32412 -12.1199 0.0095557 107 106 124
2.12068 0.564816 0.00848933 72 129 122
2.0525 4.95484 0.00644384 70 53 107
-31.1538 2.99258 0.00902473 71 53 101
-31.0902 -1.39142 0.00697377 72 57 100
-23.126 2.79361 0.00953798 66 53 99
-40.0521 3.49851 0.0172534 62 65 95
-39.9313 -5.0363 0.0081811 41 112 72
-40.0028 -0.920493 0.00723498 68 59 100
-23.5324 -2.13916 0.00834376 75 63 103
-34.1257 -3.55332 0.00562275 63 55 92
-34.1936 0.901998 0.00596328 70 57 101
-26.4991 -1.25498 0.00773634 74 66 103
-26.5657 2.99264 0.00913894 66 53 99
-24.9479 0.903441 0.00807299 77 60 105
-25.0156 3.73158 0.0100017 30 55 60
-24.8804 -3.48672 0.00699146 70 59 99
2.05307 5.15627 0.00736157 71 52 107
-40.4873 4.13701 0.0166986 33 113 74
-40.3386 -4.15832 0.00866518 54 57 84
-40.4066 -0.245221 0.00619897 66 52 96
-23.13 0.630718 0.00845174 72 60 103
-23.0619 -3.95691 0.0064775 68 65 96
-33.9926 2.11655 0.0056074 68 55 101
-33.9248 -2.26844 0.00555976 64 56 93
-31.7667 -1.79822 0.00646211 67 54 97
-31.8344 2.45119 0.00729558 67 53 100
-23.4595 -1.12817 0.00846492 75 62 105
-23.5255 3.12975 0.0110263 64 53 96
-26.4994 -2.47622 0.00752956 73 61 101
-26.568 1.77308 0.00830353 69 57 103
-24.0073 2.38423 0.0105629 68 55 101
-23.8645 -4.83671 0.00615926 57 139 91
2.25331 -16.44 0.00893778 149 149 149
2.12233 -7.93326 0.0103046 91 83 120
2.05596 -3.55441 0.00955721 71 86 107
1.98247 1.16908 0.00770579 75 130 124
1.9193 5.55946 0.0062066 70 51 107
-34.1273 1.98198 0.00659266 68 55 101
-34.0604 -2.40639 0.00534372 65 57 94
-34.9368 1.84623 0.00670975 71 55 102
-34.8713 -2.40495 0.00561808 66 58 95
-26.298 -2.4047 0.00706195 76 61 104
-48.5037 -3.82009 0.00713325 62 50 92
-41.4161 1.30874 0.00604529 63 54 99
-41.3499 -2.94513 0.00746834 64 51 97
2.25713 -9.83132 0.0102794 102 92 127
-23.2637 -0.111262 0.00888705 72 60 103
-23.1926 -4.49691 0.00799853 71 139 114
-33.6542 -2.74216 0.00636205 68 58 95
-33.7235 1.64069 0.00700047 71 55 101
-39.9998 2.18415 0.00571153 63 54 99
-39.9305 -2.20126 0.00709809 66 57 94
-36.6951 -3.82358 0.00769567 67 62 89
-36.7596 0.566301 0.00537833 66 55 98
-48.5057 -3.95563 0.00813365 59 52 93
2.80452 6.35834 0.0121038 70 51 107
-46.4798 -4.22796 0.00821824 61 48 91
-46.5457 0.0248175 0.00627216 64 55 99
-46.6139 2.45343 0.00546381 55 54 96
-3.88866 -5.23863 0.00836002 81 72 117
-34.2624 -0.31337 0.00609149 69 56 102
-34.3303 3.93907 0.00664064 43 112 78
-34.1936 -4.56571 0.00653409 58 126 85
-7.53343 -7.46993 0.00700163 86 78 115
-32.7773 -4.63169 0.00643325 51 131 88
-32.9133 3.94102 0.00726148 51 114 87
-32.8465 -0.313199 0.00613347 72 56 101
-9.01701 -4.83421 0.00635384 77 69 108
-26.0267 2.79203 0.0108931 65 53 101
-25.962 -1.59231 0.00796881 78 61 105
-41.1454 -2.06658 0.00762503 64 51 95
-41.1942 4.01233 0.0187553 28 116 71
-26.0961 3.465 0.0101723 57 57 91
-26.0267 -4.76919 0.0058533 48 119 83
-28.9966 1.30557 0.00835831 76 63 107
-27.4464 2.79064 0.00940585 70 57 103
-27.3754 -1.79987 0.00684125 75 63 103
-28.9295 -2.94594 0.00618806 72 57 98
-38.3827 3.35199 0.0102859 62 58 93
-38.3132 -0.920567 0.00635549 70 59 97
-7.7343 7.78449 0.00887852 94 95 237
-7.93749 3.67135 0.00894003 71 58 111
-7.80122 -5.10631 0.00710945 83 72 114
-7.74156 -9.5055 0.0147701 96 91 113
-8.00358 8.12546 0.00944838 83 83 213
-3.4157 -11.3782 0.00787448 111 99 123
-3.61187 1.77538 0.00911566 58 129 111
-31.6315 -1.4608 0.00710927 69 57 97
-31.7007 2.78992 0.00772884 70 54 101
-26.3011 -2.13768 0.00760733 78 63 106
-26.3671 2.58774 0.00993182 67 53 102
-32.4398 3.60443 0.00613674 65 75 96
-32.3054 -5.1726 0.00579066 51 135 85
-32.3717 -0.919806 0.00623848 67 54 97
-27.4474 -0.853136 0.00760789 77 60 105
-27.5164 3.40051 0.00946187 60 58 97
-28.8601 -3.55547 0.0058824 67 54 97
-28.9324 0.70049 0.00732011 76 60 104
-36.7573 0.363106 0.00635142 67 54 97
-36.6956 -4.15983 0.00692519 50 67 75
-32.1706 -2.34028 0.00515037 71 61 98
-32.2395 2.04664 0.00664853 69 53 100
-26.2973 -2.2041 0.00696025 77 62 105
-26.3643 2.65425 0.00913932 67 53 102
0.162314 -16.6446 0.00862269 163 154 159
0.0949619 -12.3243 0.00817874 118 110 133
-39.864 -2.2021 0.00652269 65 57 94
-39.932 2.04897 0.00564849 62 53 98
-39.3931 -4.97182 0.0081517 39 114 71
-39.4609 -0.717712 0.00639888 66 53 96
-39.5177 3.53494 0.018534 49 65 81
-31.4964 -4.02518 0.00579577 66 60 94
-31.5632 0.224818 0.00738687 76 63 107
-22.9249 -1.86922 0.00805302 73 61 101
-22.9916 2.5189 0.0113263 67 54 100
2.25179 -8.89124 0.00905337 98 91 125
2.32206 -13.6155 0.0102502 117 124 134
-48.3659 -7.19868 0.00853643 47 100 75
-48.4362 -2.80786 0.00697527 64 51 97
-33.7914 -4.43076 0.00650877 59 118 88
-33.8604 -0.177923 0.00624183 67 54 98
-8.54558 5.21718 0.0091759 64 51 104
-26.5662 -2.54261 0.00854849 73 61 101
-26.634 2.58759 0.010786 68 56 104
2.05166 3.80531 0.00636728 69 56 109
-46.5523 -2.40317 0.00814621 65 49 96
-46.6156 0.565788 0.00612034 61 55 99
-42.0229 -4.09241 0.00793896 60 53 91
-42.0915 0.159004 0.0069372 65 53 99
-39.6607 0.498526 0.0059544 68 56 100
-39.595 -3.75593 0.0076373 63 56 90
-33.2499 -1.32567 0.00570421 72 60 100
-33.3188 2.92647 0.00774077 66 53 99
3.8075 4.14096 0.00646277 70 53 108
-45.1994 -4.22952 0.00814034 40 60 75
-45.2645 0.0911899 0.00646756 64 55 100
-41.4199 -4.96955 0.00873364 42 101 73
-41.5632 3.33488 0.0140018 59 58 99
-41.481 -1.05636 0.00652936 67 54 100
-8.48036 -8.40881 0.011427 90 83 114
-8.68286 4.41143 0.0103243 67 54 107
-7.39673 -7.80595 0.00653202 84 77 111
-7.46374 -3.35217 0.00729507 76 68 109
-7.59863 5.41716 0.00947373 66 52 105
2.32226 -13.4048 0.010012 113 120 130
2.05115 3.66942 0.0074708 69 56 109
-46.5445 -2.53815 0.0074926 65 50 98
-46.6136 0.699403 0.00607344 63 55 100
-34.8024 -4.97067 0.00686839 48 135 80
-34.8699 -0.854512 0.00563741 69 56 100
-34.936 3.53615 0.00739007 51 66 84
-6.31691 -8.34443 0.00737396 91 84 117
-5.98082 -8.41557 0.00685293 92 85 118
-5.98178 -8.48209 0.00858433 92 85 118
-31.225 -3.75557 0.00565151 69 59 96
-31.2936 0.632286 0.00613722 76 63 107
-38.0438 -0.853942 0.00649495 74 62 105
-37.9733 -5.1054 0.00830168 40 124 72
-32.5091 3.06393 0.00686541 68 55 101
-32.4399 -1.32691 0.00550848 71 56 97
-5.63989 8.39388 0.00799228 100 63 132
0.90589 1.63796 0.00846213 53 132 110
0.83678 5.89548 0.00635395 68 53 108
-35.6128 -1.52887 0.005883 68 55 98
-35.6758 2.58669 0.0194516 66 54 100
-35.4771 -4.56772 0.00719158 54 128 82
-35.5469 -0.116631 0.00528876 70 56 102
-24.3396 2.92873 0.00960902 66 53 101
-24.2731 -1.59595 0.00714325 74 64 101
-32.5085 1.84539 0.00564114 68 55 101
-32.4377 -2.53884 0.00550011 69 59 96
-32.5074 1.91268 0.00705858 67 55 101
-32.4364 -2.33427 0.00549289 69 59 96
-27.9843 -4.16198 0.00637597 61 60 91
-28.0492 0.222267 0.0082922 76 61 104
-28.393 3.87021 0.00918607 59 114 95
-28.2557 -4.90225 0.00580189 40 107 76
-28.3229 -0.518459 0.00751789 74 59 102
-29.2673 -4.70133 0.00604481 43 113 78
-29.3347 -1.46328 0.00645827 74 59 102
-31.1533 3.26603 0.00767299 68 56 97
-31.0901 -1.12275 0.00713552 71 56 99
-34.1273 -1.9336 0.00528496 66 58 95
-34.1959 1.44168 0.00648066 70 57 101
-27.3121 3.73957 0.00746956 37 73 71
-29.1315 0.358459 0.0076405 77 60 104
-29.067 -4.02338 0.00658096 64 60 93
-27.2449 -0.37946 0.00843964 76 61 104
-28.2495 3.94162 0.00824243 48 111 84
-28.1862 0.160451 0.00748035 76 61 102
-28.1198 -4.09442 0.00617771 62 61 93
-7.66138 4.48126 0.00921558 63 53 105
-7.46424 -8.27676 0.005991 90 83 114
-8.19959 -8.95347 0.0147257 94 86 110
-8.27653 -4.49705 0.0078413 81 68 111
-8.34229 -0.110715 0.00759568 74 62 108
-8.40914 4.27539 0.0117687 66 53 106
-5.70927 -12.3257 0.00621777 91 181 119
-26.5656 -4.02383 0.00721509 64 60 92
-26.7013 4.0061 0.0116924 59 121 96
-22.8537 0.834758 0.00924022 71 60 102
-22.7867 -1.59624 0.00819427 73 60 103
-22.9207 -3.4852 0.00766632 74 64 101
-5.30371 1.98186 0.00827349 60 67 96
-9.07993 1.36828 0.00916654 75 63 109
-24.4743 -0.917044 0.00848921 73 61 101
-24.5407 3.3354 0.00863298 62 60 97
-24.4051 -4.42762 0.0066683 71 124 108
-41.149 -1.73079 0.00651636 63 50 96
-41.2332 3.65071 0.0162754 25 66 62
-32.5739 -1.80006 0.0064046 66 57 96
-32.5078 -0.581229 0.00618331 70 57 100
-32.4404 -4.96752 0.00659072 51 135 85
-32.6414 2.5885 0.0080385 66 53 99
-32.5078 -4.83671 0.00610849 57 136 89
-32.5707 2.45316 0.00732242 66 53 99
-6.45406 0.160848 0.00821164 64 69 99
-6.5234 4.68133 0.00817219 72 59 113
-32.1055 2.38649 0.0072677 67 54 100
-32.036 -1.86581 0.00521075 70 55 98
-41.96 -1.39223 0.00755006 67 51 98
-46.8209 -4.96997 0.00834031 56 55 86
-46.8864 -0.516797 0.00654318 63 54 97
-46.9508 3.87661 0.0155397 27 109 70
-33.6567 2.25088 0.00738911 72 56 103
-33.5888 -1.93283 0.00554271 68 61 95
1.64757 1.57694 0.00795988 67 129 118
1.71558 -2.81219 0.00922097 95 146 137
1.85133 -11.9216 0.00989184 109 106 127
0.16509 4.54721 0.00731273 68 55 108
0.227138 0.295434 0.0089367 55 135 110
0.363767 -8.48206 0.00929532 96 88 125
-33.8578 -1.66336 0.00569404 67 56 96
-33.9239 2.65721 0.00702142 66 54 100
-7.26102 -10.9896 0.0147692 83 162 107
-7.3303 -6.45472 0.00654567 85 75 112
-7.53356 6.0967 0.0110276 65 51 104
-34.9378 1.91132 0.0070774 71 55 102
-34.8701 -2.47231 0.00562267 66 58 95
-33.3843 -1.12539 0.00560727 73 60 103
-33.4553 3.12922 0.00676626 65 54 98
-27.3793 -0.445692 0.00761899 74 61 102
-28.9949 0.496537 0.00791313 78 59 104
-28.929 -3.75659 0.00660928 67 56 95
-27.3101 -4.70041 0.00604378 43 102 80
-6.79141 3.26244 0.00873947 66 53 106
-6.85857 7.51891 0.0088738 125 128 245
-29.5385 2.65692 0.00643017 69 56 102
-29.4724 -1.59557 0.0067955 73 58 101
-33.0475 -2.00056 0.00509732 67 57 94
-33.1169 3.12917 0.00843474 70 57 101
-46.7524 2.04739 0.00732429 58 56 95
-46.6813 -2.47406 0.00705781 64 50 96
-41.5548 0.360692 0.00686767 62 52 98
-41.4841 -4.02318 0.00849238 61 53 92
-32.5092 4.07185 0.00703514 45 118 83
-32.3705 -4.70148 0.00591305 52 130 85
-32.4417 -0.178957 0.0063481 75 60 104
-33.2497 -0.178576 0.00661265 69 58 101
-33.3168 4.20882 0.0073507 37 117 80
-33.1833 -4.29536 0.00584423 49 70 75
-40.7409 -4.43197 0.00739895 51 95 79
-40.8092 -0.0432257 0.00617265 64 52 98
1.24104 -15.1636 0.0092184 139 134 141
-7.39756 -6.59108 0.00705803 83 75 112
-7.46532 -2.40618 0.00858732 76 68 109
-23.0608 -0.585 0.00941982 72 61 103
-35.0705 2.72332 0.00636925 67 55 101
-35.0045 -1.52999 0.00594504 71 58 101
-36.4862 -3.14797 0.00667393 64 61 90
-36.5572 1.23172 0.0108069 68 55 99
-7.53179 -6.65859 0.00681597 83 75 112
4.00994 -14.1546 0.00902118 85 127 105
3.87672 -5.85247 0.0101844 89 80 127
3.66829 7.18406 0.0126907 174 146 195
-34.938 0.0226185 0.00562165 68 55 101
-34.8662 -4.36469 0.00661803 46 89 79
-28.5942 -1.12368 0.00700409 74 59 100
-27.7821 1.10256 0.00877884 73 60 104
-28.6588 2.99361 0.00855661 70 57 101
-27.7156 -3.28286 0.00683919 73 60 102
-6.72293 -1.25842 0.00912725 77 70 114
-5.30655 -7.0611 0.00836703 88 80 117
-5.50621 5.96575 0.00865279 67 48 104
-3.48269 -15.1638 0.00726376 127 137 138
-3.74964 1.91144 0.00905573 61 127 113
2.59302 -7.13641 0.0105459 90 82 123
2.45627 1.17633 0.00787367 62 102 104
-41.225 3.95228 0.0179073 31 114 72
-41.1459 -1.99852 0.00684637 64 51 95
-34.8012 -2.20117 0.00644827 66 58 95
-34.868 2.31744 0.00657795 68 55 101
-5.30557 -6.99671 0.00849139 88 80 117
-5.43983 1.51038 0.0085229 64 75 103
-5.50672 5.89568 0.0084466 67 48 104
2.59253 -7.06072 0.0090088 90 82 123
2.38928 5.62761 0.00666403 72 53 109
-31.6291 4.21314 0.00777219 40 115 79
-31.4952 -4.56345 0.00594228 50 118 81
-31.5612 -0.310664 0.00690186 70 59 102
-7.12764 -5.37543 0.00692565 84 73 113
-7.19242 0.0250847 0.00986541 72 65 107
-5.97997 -7.60097 0.0065212 87 80 114
-6.11551 1.78128 0.00886597 64 64 98
-9.82093 1.98018 0.0100217 76 60 107
-42.0946 -4.16038 0.00797439 57 53 88
-42.1605 0.364592 0.00625021 65 51 98
-28.656 -4.96691 0.00556005 45 115 81
-27.5801 -4.16201 0.0056822 65 62 93
-28.7262 -0.580589 0.00649584 77 60 104
-27.6455 0.224341 0.00803161 75 60 101
-28.7947 3.8688 0.00937589 59 116 98
-7.87182 -6.18411 0.00682767 84 74 111
-7.9387 -1.93074 0.00773273 74 65 110
-31.495 -2.1359 0.0059926 71 63 102
-31.5622 2.11946 0.00733359 66 53 99
-48.0289 -5.24014 0.0082282 62 48 91
-48.0997 -0.986134 0.00676617 61 52 95
-40.3373 -1.12689 0.00713965 68 55 98
-40.4043 3.19852 0.00545043 65 57 98
-28.4584 -4.56567 0.00561649 50 103 87
-27.7826 -4.02224 0.00727767 67 61 99
-28.5259 -0.380639 0.00699524 76 61 104
-28.5911 4.00389 0.00989819 47 118 88
-27.8513 0.0914528 0.00757704 76 61 104
-5.57432 -7.2646 0.00876833 86 79 113
-5.77526 5.76536 0.00807535 66 49 104
-35.8158 -1.32571 0.00630852 72 57 100
-6.17838 8.18887 0.00839337 49 43 169
-6.11804 3.93714 0.00822311 67 52 107
-5.98184 -5.44206 0.00799944 82 74 113
-35.8161 -1.25744 0.00547552 72 57 100
-35.8826 3.12166 0.0176221 64 55 100
-32.7077 2.45257 0.00727853 65 53 99
-32.643 -1.79812 0.00544376 65 57 96
-24.3434 2.38273 0.00867406 68 55 101
-24.1363 -1.25771 0.00834024 73 62 102
-24.2064 2.79448 0.00889761 69 53 102
-28.5934 -4.6321 0.00612527 44 102 80
-27.6469 -3.95856 0.00604346 67 59 97
-28.6592 -0.516462 0.00654905 75 60 103
-36.6252 2.44564 0.0149877 65 56 99
-36.5577 -2.27042 0.00607482 62 54 91
1.51672 8.39702 0.0145659 250 195 253
-35.6191 3.96613 0.0102248 43 113 78
-35.4783 -4.36025 0.00819637 54 100 83
-35.5453 -0.312466 0.00510855 70 57 101
-35.5438 -0.38094 0.00555339 69 56 100
-35.616 4.00463 0.0165465 39 116 78
-35.4761 -4.29433 0.00666068 24 59 52
-27.9175 -3.55323 0.00658418 68 57 99
-28.456 3.60251 0.00874104 42 59 75
-28.323 -5.17387 0.00555116 43 110 77
-27.9892 0.497591 0.00795646 74 59 102
-36.6941 0.563431 0.00542815 66 54 100
-36.6227 -3.68666 0.00735495 66 59 90
-48.031 -4.97021 0.00803045 61 48 93
-48.1006 -0.71946 0.00637893 61 53 94
2.12054 -8.21557 0.00961542 94 86 125
-40.7441 -3.9602 0.00882355 61 52 89
-40.8105 0.564984 0.00670565 66 54 100
1.44683 -12.9364 0.00868953 120 116 133
1.24525 -0.174942 0.00882552 59 133 110
1.17504 4.14144 0.00848105 68 56 106
-8.74386 4.95021 0.00903994 64 52 102
-5.16944 -7.2655 0.00711203 86 78 115
-5.37508 5.82982 0.00853765 69 50 106
-27.6467 -4.90341 0.00627235 42 106 76
-28.6636 0.698379 0.00773998 76 61 104
-27.7886 3.4002 0.00928351 63 61 98
-27.7141 -0.990516 0.00677097 75 60 103
-8.40739 -8.07556 0.010074 91 84 115
-8.47884 -3.82449 0.00828519 78 70 111
-8.54657 0.769017 0.00739219 74 65 110
-8.61179 5.01142 0.0116679 64 51 104
-8.67946 0.631017 0.00722457 75 66 111
-23.9356 2.99132 0.0103066 67 53 100
-48.1696 -0.786868 0.00673291 62 53 95
-48.0989 -5.03971 0.00754099 61 48 92
-5.16777 -7.466 0.00766316 86 79 113
-28.6617 -3.48541 0.00634119 69 57 97
-27.6489 -0.447839 0.00762053 76 64 102
-28.7321 0.901023 0.00745192 75 60 103
-27.7171 3.19156 0.00800789 65 57 98
-27.58 -4.83596 0.00581262 44 102 77
-6.78953 6.16634 0.00767964 62 48 101
-6.79245 6.23392 0.00843754 62 48 101
-8.41237 -8.21707 0.00994676 89 82 113
-23.2589 -4.76886 0.0074066 55 143 97
-23.3315 -0.517452 0.00823668 71 60 102
-5.23658 -11.0475 0.00641574 111 106 129
-6.92688 -6.25188 0.00709389 84 72 110
-7.32861 -5.58185 0.00713451 82 70 110
-24.0673 2.65186 0.00926099 69 53 102
-23.9995 -1.46628 0.00764432 75 64 104
-39.2586 -2.67857 0.00793899 64 56 93
-39.3241 2.04837 0.00525196 65 57 98
-28.2544 -4.43022 0.00701775 59 100 94
-28.3201 -0.175688 0.00745096 81 66 109
-28.0532 0.0270649 0.00740864 77 62 105
-28.3892 4.07514 0.00811016 47 116 85
-28.1248 4.27422 0.00802399 40 116 78
-38.1785 -3.41559 0.00760652 64 57 91
-38.2447 1.17164 0.00520686 66 57 100
-7.46387 -3.08045 0.00763615 76 68 109
-7.53088 1.30412 0.00809967 68 63 104
-7.59809 5.69291 0.00933537 65 51 104
-9.49115 5.49227 0.011459 65 51 104
-9.42263 1.37732 0.0123045 75 63 109
-23.0547 0.361223 0.00807823 72 59 103
-22.9914 -3.88845 0.00726547 70 65 97
-42.0916 -4.35952 0.00866546 44 67 74
-42.1588 0.0242826 0.00617238 66 53 99
-38.3801 -2.60739 0.00732977 64 57 91
-38.4466 1.64504 0.00564152 67 58 103
-5.77842 -4.22948 0.00812873 79 70 113
-5.91232 4.0716 0.00812441 65 52 106
-7.53375 1.43962 0.00964973 70 65 106
-7.59909 5.56062 0.00963511 64 50 103
-32.8456 -3.41847 0.00575089 65 57 96
-32.9116 0.835639 0.00631845 72 59 102
-11.3124 1.03812 0.012115 72 63 108
-11.382 5.15832 0.0112923 62 53 100
-47.2876 -2.81038 0.00763905 59 48 91
-47.3579 1.44105 0.00582901 59 57 96
-4.29255 -12.6017 0.00655942 126 137 141
-4.36137 -8.48248 0.0087894 93 85 122
-4.56117 5.0203 0.00883967 69 52 107
-36.6246 -4.36127 0.00852318 56 118 86
-36.6911 -0.110446 0.00640571 72 58 100
-38.0349 2.58828 0.0206055 63 54 97
-37.9748 -1.79684 0.00659349 64 58 94
-37.9088 -4.36592 0.0068277 56 98 83
-22.9913 -3.96009 0.00745731 69 66 95
-23.0546 0.427712 0.0104128 71 60 103
-48.1684 -2.00123 0.0076259 61 52 97
-48.0987 -6.25432 0.00784072 61 51 88
-1.93209 -1.66277 0.00896952 53 143 108
-38.2437 -2.06649 0.00700815 65 57 96
-38.3199 2.17695 0.0171249 64 56 97
-36.5558 -0.583224 0.0059238 71 58 98
-36.6366 3.98826 0.0168403 32 112 73
-36.49 -4.8347 0.00728872 41 131 70
-38.5753 3.40433 0.0204049 64 60 93
-38.5125 -0.988413 0.00631658 68 53 94
-7.9379 -4.63299 0.00729431 82 70 110
-46.8178 -0.380902 0.00722777 64 55 100
-46.7512 -4.76751 0.00811082 60 51 91
-46.8837 3.53702 0.015528 46 66 84
-36.6928 -0.0447635 0.0056611 77 63 105
-36.6255 -4.4305 0.00665447 58 132 90
-6.78933 3.32838 0.0081118 66 53 107
-6.85645 7.71615 0.0100463 89 94 224
-36.3533 -4.90118 0.00818861 46 135 77
-36.4238 -0.514677 0.00608137 72 57 98
-36.4788 3.61801 0.0161826 44 66 72
-30.2117 -3.48569 0.00521908 73 56 100
-30.2816 0.768525 0.00717527 72 56 101
-30.2107 -3.41904 0.00539575 74 57 101
-30.2777 0.700433 0.00898947 73 56 101
-47.9621 -5.84564 0.00819125 64 48 95
-48.0344 -1.59709 0.00737689 59 50 95
1.51217 -12.3923 0.00972599 122 118 135
-33.2488 0.699859 0.0071699 73 57 104
-5.23557 -3.68654 0.00934576 81 69 115
-5.30829 1.17284 0.00851112 31 63 78
0.362364 -10.7123 0.00908166 103 99 126
0.296978 -6.31832 0.00882948 85 76 121
0.229095 -1.93301 0.0102314 58 141 111
0.163697 2.45092 0.00817136 59 128 107
-41.4842 0.698841 0.0064209 63 54 99
-41.4173 -3.48506 0.00709294 63 50 94
-37.7043 0.902262 0.00600143 64 55 99
-37.6379 -3.41656 0.00743703 64 59 90
-47.8265 -5.7775 0.00777824 62 47 93
-47.8958 -1.52838 0.00667686 61 52 97
-3.41551 -10.5031 0.00770485 101 95 123
-3.48255 -6.25005 0.00868867 83 76 117
-4.22541 -9.89812 0.00858859 99 93 121
2.93432 -6.723 0.00915584 89 81 122
-5.77731 -10.5728 0.00634012 99 95 118
-5.84515 -5.71252 0.00831425 84 74 111
-6.04759 7.04708 0.00854831 64 54 117
-8.81385 2.12166 0.0105415 72 63 108
-4.42813 -5.64632 0.00906049 81 74 115
-4.49595 2.18442 0.00878974 80 121 127
-37.9095 -2.81276 0.00719961 64 56 93
-37.9754 0.971033 0.0057701 63 55 97
-25.3571 -1.05311 0.00773169 76 61 104
-46.1426 0.835953 0.0068389 63 55 96
-46.0734 -3.55314 0.00831769 63 45 93
1.98658 -6.45522 0.00856184 88 79 122
-35.8161 -1.18991 0.00568726 73 58 101
-24.4748 -3.55282 0.00745646 75 64 104
-23.187 1.37314 0.00900642 74 58 105
-23.1269 -2.88063 0.00698483 73 62 102
-5.91305 -11.1159 0.00625814 97 107 116
-6.04654 -2.60671 0.00848306 75 71 108
-6.11314 1.03517 0.00816961 61 67 99
-6.18329 5.42344 0.00867053 67 50 105
4.14013 -16.383 0.0111504 110 148 111
3.87552 0.700679 0.00812587 68 67 109
-48.3697 -4.63509 0.00892812 61 48 91
-5.71226 0.0901137 0.00885188 52 73 94
-5.77703 4.48413 0.00866065 63 53 106
-6.79102 -7.73896 0.00748824 88 81 115
-6.92319 0.565498 0.00856162 71 65 109
-6.99106 4.95571 0.00822657 65 52 106
-31.4955 -4.90164 0.00660924 44 123 78
-31.5614 -0.516139 0.00607767 71 58 102
-31.6308 3.86657 0.00756675 50 110 79
4.14578 -16.178 0.00873233 104 144 107
-5.23517 -0.5196 0.00877799 92 143 138
-5.10281 -9.29194 0.006793 96 90 118
-5.7133 -6.24829 0.00874876 85 75 112
-31.5654 1.37061 0.00678615 74 58 103
-31.4947 -3.01288 0.00587593 70 58 98
-21.7042 -3.01354 0.00879974 73 65 102
-21.776 -0.447362 0.00911403 70 59 101
-21.84 3.93347 0.00993896 60 104 91
-25.6899 -0.785402 0.0079102 78 61 105
-25.7582 3.47088 0.00846314 62 59 96
3.74113 -11.4511 0.00905593 107 108 126
3.48057 5.08635 0.0119199 72 53 109
-38.7853 -3.08247 0.00666335 66 56 90
-38.8513 1.30724 0.00557061 63 55 97
2.45681 -10.1063 0.010163 103 94 125
-7.33176 -5.44458 0.00664022 83 71 111
-7.39727 -1.05469 0.00833244 75 68 112
-39.3237 2.31992 0.00531275 63 54 99
-39.2581 -1.86446 0.00641351 66 58 97
-7.66717 -3.14857 0.00769346 76 68 109
-7.73371 -0.854976 0.00738901 75 66 113
-7.80076 3.53656 0.00853887 70 57 111
-7.87327 7.92162 0.00996997 93 96 235
-47.4269 1.9133 0.00589255 60 55 95
-47.3578 -2.81279 0.00808477 59 48 93
-21.9762 -0.17346 0.0100584 73 61 103
-22.9952 4.07699 0.00910292 43 98 77
-22.9209 -0.178952 0.00926982 71 58 102
-22.8529 -4.42605 0.00708424 52 108 95
-24.747 -4.02615 0.00758791 70 65 95
-4.49632 -10.4388 0.00774988 101 96 119
1.84959 -14.6243 0.00833371 131 130 138
-41.1466 -1.32374 0.00702514 63 51 97
-41.2152 3.26312 0.00592829 62 56 97
-7.66882 -1.46052 0.00814769 77 68 113
-7.59945 -5.71473 0.00723267 84 72 110
-32.7768 -1.32501 0.00556526 72 60 101
-32.8479 2.85689 0.00763724 67 54 100
-4.49582 -14.5571 0.00708333 2 30 16
-4.6276 -5.77905 0.00805853 82 76 114
-4.7659 3.06237 0.00958965 61 60 100
1.44176 -5.44452 0.0102662 86 77 122
-30.1457 -3.55298 0.00568504 71 56 99
-30.2114 0.698709 0.00747942 74 56 102
-36.5566 -2.60566 0.00743135 68 61 96
-36.6314 1.71086 0.0101164 66 55 97
-31.6977 -3.68778 0.00613818 69 57 97
-31.7648 0.360974 0.00611884 74 61 105
-36.3547 -4.83644 0.00813349 44 131 75
-36.4211 -0.581687 0.00570199 72 57 98
-36.5009 3.67778 0.0155405 37 66 65
-30.2093 3.19436 0.00791733 68 55 101
-30.0773 -5.1039 0.00662637 42 116 74
-30.1455 -1.19047 0.00665743 73 58 101
-31.9688 -3.75416 0.00594249 66 58 95
-32.0338 0.0242967 0.00613099 71 55 102
-31.764 0.497615 0.00724608 73 60 104
-31.6983 -3.8231 0.00582613 70 60 97
-36.3575 -3.08158 0.00664944 64 60 91
-36.4177 1.17582 0.0100605 69 56 99
-30.282 1.98228 0.00787992 74 58 103
-30.2123 -2.54186 0.00547605 69 57 95
-31.4954 -4.49763 0.00608133 55 114 86
-31.5628 -0.109669 0.00583139 72 59 103
-31.6283 4.00867 0.00927401 45 118 81
-3.28114 -13.9464 0.00717321 120 128 131
-3.47954 -0.853353 0.00867678 55 139 106
-3.61789 7.9222 0.0084848 203 176 253
-3.41739 -9.35982 0.00838905 96 89 122
-3.48257 -4.97034 0.00936296 84 75 122
-4.49404 -0.786296 0.00884285 63 135 115
-4.42723 -2.67585 0.00890764 79 120 116
-4.29033 -11.4479 0.00719132 107 102 124
-41.6187 -3.95555 0.00838611 63 49 93
-41.685 0.295289 0.00662312 62 50 97
1.71657 -14.1555 0.00938999 126 126 138
1.51204 -1.25635 0.00911172 65 139 116
-38.7183 0.292325 0.00623793 67 54 100
-38.7868 4.2163 0.0184056 28 114 71
-38.6481 -4.09092 0.00749974 57 62 82
-41.6169 3.18461 0.00592909 60 54 97
-41.5532 -1.32749 0.00662351 67 53 100
-32.0334 4.20851 0.00921828 43 119 80
-31.9657 0.698895 0.00747036 71 58 102
-31.8999 -3.55279 0.00529196 72 57 98
-31.9665 -0.85223 0.00580346 67 54 98
-32.0369 3.60464 0.00736339 65 71 96
-21.845 -1.80272 0.00995461 73 62 104
-21.9107 2.44866 0.0100119 68 55 99
-3.55033 -15.4995 0.00753639 138 148 147
-3.61631 -11.2443 0.00731284 110 98 122
-3.68501 -7.19884 0.00943695 89 81 120
-41.8216 -4.49813 0.00875601 28 63 58
-41.8871 0.025388 0.00618516 66 53 99
-28.3228 -4.76856 0.00680523 43 106 79
-28.3911 -0.517908 0.00749764 76 61 104
-28.4558 3.74323 0.00918051 35 76 70
-27.9173 -4.49865 0.00558519 49 98 83
-27.9853 0.361061 0.006979 74 59 102
-47.7001 -6.18414 0.00788527 46 72 77
-47.7625 -1.93137 0.00665149 60 51 96
-3.55173 -6.66171 0.00826495 86 78 117
-41.8872 -0.109878 0.00748663 67 54 100
-41.9621 4.14918 0.0146537 32 110 73
-41.8207 -4.3632 0.00865766 42 58 72
-31.6303 0.565885 0.00701519 74 61 105
-31.5616 -3.68801 0.00500939 72 57 98
1.98528 -1.32414 0.00872678 76 143 125
1.91767 2.92992 0.00748689 62 65 98
1.85202 7.43871 0.0126009 243 200 255
-3.61622 -11.3835 0.00798829 110 100 124
-4.2964 -4.90209 0.00824945 81 72 117
-4.42377 3.86999 0.00881076 66 58 109
0.364256 -3.62271 0.0112073 78 145 128
0.295253 0.62798 0.00836316 53 135 112
0.229404 5.15619 0.00721096 70 53 108
-40.4202 3.31406 0.00658792 65 57 99
-40.3385 -1.25892 0.00694587 68 55 98
-38.0404 -4.16016 0.00779441 57 70 83
-38.109 -0.0439952 0.00616751 67 56 98
-45.2679 -4.90412 0.00952728 35 100 73
-45.3327 -0.650076 0.00766507 66 54 100
-38.0406 -2.94527 0.00803574 65 55 90
-38.1098 1.44092 0.00510413 66 57 99
-30.2798 -2.8098 0.00632084 69 57 97
-30.3504 1.57736 0.00684779 69 56 100
-47.6944 -3.08134 0.0085539 59 51 92
-47.6242 -4.7006 0.00752413 61 48 91
-33.1142 -2.74313 0.00535839 69 59 96
-33.1812 1.64093 0.00677574 71 58 102
-47.291 -3.48496 0.00885957 61 48 91
-47.3579 0.766218 0.00610884 62 56 100
-40.4721 3.26479 0.00551084 65 57 98
-40.4067 -0.987102 0.00624794 68 55 98
-2.2708 4.20806 0.00787171 67 55 103
-33.115 -2.8112 0.00585092 68 59 96
-33.183 1.44179 0.00628505 72 56 101
-46.6167 -3.82699 0.00787987 59 46 89
-46.6807 0.567273 0.00698564 61 55 99
-40.4448 3.47489 0.0173665 61 70 95
-40.4034 -0.919442 0.00675686 68 56 99
-23.3945 -1.53085 0.00749778 74 61 104
-23.4648 2.85414 0.0100087 66 53 99
-25.8916 -4.56595 0.00697086 61 120 97
-25.9595 -0.308995 0.00788072 77 62 105
-26.0255 3.93509 0.00973451 47 107 82
-22.7858 -3.62084 0.00668205 71 63 100
-22.85 -1.46306 0.00907361 73 60 103
-22.9213 2.78651 0.0103364 66 53 99
-40.6939 3.92194 0.019026 35 113 75
-40.6071 -1.18941 0.00636691 68 55 101
-41.7545 0.0935827 0.00743561 64 52 98
-41.6847 -3.28292 0.00782398 63 50 94
2.45958 3.4006 0.00700683 69 56 109
2.52757 -0.987508 0.00886291 85 134 130
2.65968 -9.29052 0.0104199 98 90 127
-23.7315 3.33678 0.00902296 63 58 99
-23.4028 2.58492 0.00985207 68 54 100
-24.275 -1.66553 0.00793442 76 65 102
-24.3455 2.44631 0.00973885 68 54 103
0.226723 -1.79822 0.00912645 60 141 109
-38.7167 1.30738 0.00559585 64 55 100
-38.6482 -2.94603 0.00654637 68 59 89
-41.4854 -2.54172 0.00789854 67 51 98
-41.5516 1.84494 0.00608735 62 53 98
-28.3219 2.79406 0.00785809 69 56 102
-28.2524 -1.46324 0.00703949 72 60 100
-28.0499 -2.94594 0.00641252 69 58 98
-25.4203 2.04765 0.00876086 72 56 103
-25.3524 -2.34093 0.0087894 75 58 102
2.11746 -10.7096 0.0101835 100 100 126
-47.4232 1.57887 0.00781574 60 58 98
-47.3616 -2.47523 0.00762435 59 50 95
-47.2855 -6.72643 0.00917307 39 99 74
3.87499 3.19593 0.00616007 73 56 111
-38.6498 -3.4193 0.0065406 65 57 91
-38.7164 0.968665 0.00583569 68 57 100
-21.7059 -4.50497 0.00859637 79 141 116
-21.7708 1.03155 0.00983277 68 59 102
2.1222 -10.8438 0.0101375 101 101 125
-38.9185 1.30717 0.006436 63 55 97
-38.8535 -2.94412 0.00705446 66 57 89
-38.7867 -2.87704 0.00812365 70 61 90
-38.8535 1.37351 0.00519007 63 54 97
2.32374 -7.0656 0.0104634 90 82 123
2.25648 -2.47306 0.0108346 87 128 130
-24.6725 0.362082 0.00815103 77 60 104
-21.8446 1.03655 0.00838029 68 59 102
-31.1566 -4.70042 0.00558451 53 123 89
-31.225 0.0230564 0.00677658 75 59 104
-47.3589 -3.08094 0.00764576 60 49 90
-47.4251 1.10495 0.00627636 59 56 98
-47.9643 -3.75268 0.00713966 61 50 96
-3.55171 0.96533 0.00923122 61 137 111
-23.1949 2.5191 0.00822413 67 54 100
-23.1261 -1.86433 0.00793423 73 61 101
-47.3594 1.2378 0.00709737 60 58 98
-47.2918 -3.14975 0.00759368 60 47 90
1.78183 -12.2585 0.00847976 118 115 134
1.71828 -7.81005 0.00902772 90 82 121
-24.2633 1.71103 0.00796286 71 59 105
-24.2033 -2.67818 0.00659982 74 62 98
-21.8441 4.13676 0.011609 51 106 87
-31.1573 -0.987465 0.00686412 72 57 100
-31.2228 3.86916 0.00843778 49 111 82
-31.4256 3.06395 0.00823107 70 54 101
-31.3591 -1.32511 0.00647907 72 57 100
-22.8527 -4.09526 0.00810806 67 67 93
-22.9247 0.298145 0.0102189 73 60 104
-1.7951 -5.44261 0.00836311 85 76 121
-1.86379 -1.05384 0.00904514 55 142 108
-23.2572 3.12704 0.0108204 65 54 97
-48.5039 -2.94608 0.0085493 60 51 96
-48.4366 -7.12988 0.00984776 54 95 81
-48.4347 -7.06605 0.00934545 54 90 82
-48.508 -3.00876 0.00757488 61 52 97
-29.1987 -4.22652 0.00587511 59 66 92
-29.268 0.0242707 0.00708022 79 62 106
-29.3349 2.45059 0.00802299 69 55 104
-5.23741 -13.0046 0.00691022 102 186 126
-5.50713 4.07286 0.00844755 63 53 106
-44.5241 -3.28296 0.00881827 59 45 94
-44.5905 1.23956 0.00678603 62 53 98
-46.8878 -0.920566 0.00746964 62 53 98
-46.9509 3.46326 0.014698 51 60 91
-46.8118 -5.6454 0.00883582 39 101 76
2.72378 -12.872 0.00881707 110 121 127
2.45526 4.74813 0.00740037 71 52 108
-6.45158 0.223452 0.0086449 65 68 99
-6.52045 4.61845 0.00826589 71 61 114
-41.8224 0.835707 0.00726446 63 54 99
-41.7565 -3.5517 0.00823583 62 49 93
-23.6656 -2.94553 0.00754771 75 65 102
-24.678 -5.10259 0.00683833 53 139 94
-24.7435 -0.652174 0.00849753 75 60 101
-24.8088 3.74202 0.0103171 34 66 65
-24.6773 -5.17326 0.00690938 51 134 92
-24.7476 -0.583622 0.00743911 73 61 101
-47.9678 -5.30699 0.00874077 63 48 91
-48.0318 -1.05546 0.00691654 62 53 96
-1.99928 -13.3376 0.00893551 122 118 135
-2.13288 -4.7697 0.00982435 83 77 121
-2.1995 -0.651752 0.00940268 56 141 108
-23.3952 -2.06842 0.00726863 72 60 100
-31.2933 -3.2155 0.00525537 70 59 96
-31.3604 1.03567 0.00622864 75 59 104
-44.7942 -5.03774 0.00845004 38 96 76
-44.8596 -0.651423 0.00705061 66 56 101
-44.9382 3.74019 0.0143632 15 85 55
-46.8215 -5.57764 0.0100129 40 101 77
-46.9589 3.26414 0.0192277 56 54 93
-46.8831 -0.987709 0.00827647 62 53 98
-22.9219 -4.8333 0.00674776 52 144 97
-23.052 3.94549 0.00888546 61 110 97
-22.9855 -0.446529 0.0079879 70 59 101
-25.288 -4.22768 0.00726898 65 70 90
-25.3509 0.0266498 0.00733209 74 62 102
-39.5266 -0.0424009 0.00655491 69 56 99
-39.4602 -4.43102 0.00724953 61 112 87
-5.84541 -8.81721 0.00781133 93 86 117
-6.04717 4.21103 0.0084599 63 53 106
1.03755 -7.32824 0.00895229 87 82 122
2.58786 -5.78179 0.00944496 87 78 123
2.52282 -2.27303 0.00921132 42 76 85
-47.3586 -5.91696 0.00772213 46 88 84
-47.424 -1.45793 0.00660661 64 55 100
-40.6092 -0.1111 0.0068367 65 52 95
-40.5371 -4.36351 0.00735086 59 94 88
-23.8655 2.24843 0.00953374 68 55 101
-23.8023 -2.13972 0.00780223 77 62 103
-29.4012 -2.94477 0.00604041 70 58 96
-29.4701 1.44309 0.00703092 74 60 104
-46.8847 -3.89585 0.00977087 61 47 91
-46.9543 0.495247 0.0067013 62 57 98
-46.8161 -3.75742 0.00716542 60 47 90
-46.8845 0.428 0.00612969 62 56 97
-46.6826 -4.3641 0.00910174 61 46 93
-46.7505 0.159357 0.00636489 64 55 99
-23.4624 -3.68855 0.00726986 74 66 103
1.64641 -10.3693 0.00950531 103 96 127
1.44359 2.99541 0.00715405 63 75 99
-41.4852 -0.44685 0.00716385 69 53 100
-41.416 -4.50027 0.00735272 51 96 79
-32.5742 0.768314 0.0075088 72 59 103
-32.5085 -3.14833 0.00515095 71 61 98
2.25618 -13.745 0.00863239 121 125 134
1.98697 -1.52812 0.00840087 73 140 122
-1.92903 -6.18514 0.00881888 83 76 118
-1.99471 -1.93218 0.00928947 57 147 111
-2.06129 2.11772 0.00856776 53 133 106
-7.93764 -3.68941 0.00774374 79 71 110
-25.2853 -3.01326 0.00755186 70 63 97
-40.4053 2.31916 0.00527926 62 53 98
-40.3374 -2.40483 0.00677185 63 55 94
1.17504 -11.7852 0.00928849 115 107 130
-23.3913 0.965669 0.00929794 71 58 101
-23.329 -2.54043 0.00680032 68 56 96
1.10942 -5.64993 0.00992745 86 77 122
1.0395 -1.3892 0.00879902 62 137 114
0.905235 6.10088 0.00664673 69 52 107
-47.3574 -2.54014 0.00847347 58 49 94
-47.4221 1.64461 0.0054632 60 58 98
-45.199 -4.15932 0.00798851 49 54 83
-45.2655 0.0269591 0.00635466 64 55 100
2.0559 -5.85057 0.0101998 87 78 123
1.98505 3.46476 0.00706762 69 57 107
1.92102 7.86259 0.0119879 248 197 253
3.0636 -11.1169 0.00914045 107 105 129
2.79611 6.50451 0.0114873 69 50 106
-44.5216 -0.786914 0.0083173 67 54 99
-44.5896 3.61552 0.0206521 36 67 76
-2.337 3.13333 0.00951176 61 125 111
-2.26921 5.28936 0.00849558 68 54 105
2.92832 -14.4238 0.00884181 121 136 133
2.79244 -6.12227 0.00992749 88 79 122
2.18642 -5.17658 0.0107411 84 77 121
2.11854 -0.780099 0.00968971 72 140 119
-47.3566 -5.98215 0.00792555 45 91 82
-47.4244 -1.39047 0.00709483 64 55 100
-48.5019 -6.18507 0.00910699 66 47 92
3.53026 7.64952 0.0126943 249 200 255
3.80667 -9.96911 0.0105293 100 93 127
2.45669 -2.67569 0.0103324 7 35 46
-3.7507 -10.9818 0.00764372 105 95 120
1.71337 -16.3832 0.0101402 153 147 149
-32.8448 -4.4988 0.00596042 64 124 96
-32.9129 -0.245838 0.00543885 71 57 102
-41.6225 -3.88998 0.00897 63 49 93
-41.6866 0.496 0.00649351 62 53 100
-40.8119 -0.382176 0.00648812 69 53 99
-40.8578 3.88791 0.0173665 32 105 71
-40.7389 -4.63118 0.00865175 42 103 72
-3.21367 -15.0274 0.00740018 133 141 143
-3.34398 -6.51956 0.00827994 85 77 118
-3.47979 0.427765 0.00903607 56 137 105
2.72665 -10.2297 0.0103775 101 95 123
-36.556 -1.32745 0.00567166 69 57 97
-47.5568 -5.98163 0.00912782 43 67 78
-47.6279 -1.73187 0.00853509 62 52 97
-26.1004 4.20631 0.00950583 45 116 82
2.79066 -7.20368 0.00915176 91 83 124
-39.2592 -0.784735 0.00673107 67 54 97
-39.3376 3.39795 0.0170773 64 64 97
-41.8217 -5.10618 0.00950639 43 95 74
-41.8916 -0.987826 0.00645419 66 53 99
-41.7558 -0.447113 0.00748195 67 54 100
-41.6887 -4.90156 0.00880057 36 85 66
-40.021 3.24581 0.0166858 64 59 97
-39.9327 -1.12386 0.00642267 67 56 96
-46.6785 1.9153 0.00803628 61 56 94
-46.612 -2.47374 0.00739821 66 48 96
-39.9327 2.85914 0.00466447 65 56 98
-39.8653 -1.39387 0.007149 68 56 97
1.64914 -1.79565 0.00917136 68 137 116
1.58009 2.58816 0.00736567 19 41 55
1.50199 6.96751 0.00743819 70 49 105
1.64814 -12.9994 0.0104199 118 115 132
1.6474 -14.4223 0.0096227 128 126 137
1.4447 -1.59723 0.00887551 65 137 115
1.37809 2.65886 0.00752778 38 65 76
-30.2099 1.10318 0.00838226 70 57 101
-26.4984 -1.19367 0.00850914 74 66 103
-41.3512 4.06862 0.00974437 26 116 70
-41.2805 -0.177512 0.00683812 65 52 98
-41.2162 -4.43219 0.00806538 58 96 90
1.51394 6.8416 0.00585693 69 50 106
1.57933 2.45038 0.00820552 59 87 98
-41.9597 -3.68938 0.00797866 63 50 93
-42.0237 1.17209 0.00588198 63 54 97
1.98346 7.24462 0.0124249 196 161 215
-46.8852 0.766585 0.00655969 60 56 99
-46.819 -4.09221 0.00727386 62 46 93
2.59237 -4.56606 0.00969908 80 77 120
-40.5398 0.294481 0.00634617 67 54 98
-40.4726 -3.82444 0.00707821 60 52 88
-46.8846 -3.82418 0.00738387 61 48 92
-46.953 0.430375 0.00660056 62 57 98
-46.9521 0.294315 0.00779435 63 56 97
-46.8831 -3.95876 0.00796527 61 47 91
2.86058 -13.2708 0.00942505 109 125 125
2.79199 -8.41641 0.00969336 98 90 129
1.6454 -0.5198 0.00871975 65 135 111
1.51953 8.26125 0.0122764 249 195 253
-48.1004 -3.34921 0.00874653 62 50 96
-5.44127 3.60114 0.00854702 63 57 103
-5.50925 7.85471 0.00778791 85 80 208
-25.2188 -3.82342 0.00622534 70 58 94
-7.59877 -0.041927 0.00856284 72 63 106
-7.66724 4.21269 0.00841015 64 54 107
-30.1439 1.64281 0.00746089 72 57 102
-30.0794 -2.53953 0.00595682 69 57 95
-3.27974 -12.9355 0.0068126 117 117 127
-3.48145 -1.86713 0.00938443 62 146 112
-3.61871 6.91218 0.00820227 70 50 103
-46.2077 1.44395 0.00696141 61 54 96
-46.142 -2.67724 0.00710489 65 49 98
-3.55208 4.14206 0.00951148 65 57 104
-3.41117 -4.62949 0.00932159 83 74 119
-38.447 -2.33726 0.00672239 64 56 93
-38.5142 1.84632 0.0051285 66 57 102
-0.173265 -13.6143 0.00791378 124 119 139
-5.03347 -2.53863 0.00976469 63 78 101
-4.89989 -10.3005 0.00782208 100 94 120
-47.7629 -3.28687 0.00852395 59 50 93
-9.3523 -8.21059 0.0107997 82 87 109
-9.42328 -3.95913 0.00643886 77 66 106
-24.6814 -4.22643 0.00703919 69 83 94
-24.7475 0.627649 0.00730257 76 60 105
-46.6139 -2.33749 0.00806812 66 50 95
-46.6826 2.05004 0.00572102 60 55 95
-32.7769 -0.446004 0.00672946 70 57 101
-32.7099 -4.69866 0.00711323 51 130 83
-32.8441 4.1438 0.00765737 42 119 83
-38.8523 -2.67553 0.00647075 68 58 92
-38.9206 1.57574 0.00514513 64 55 99
1.51164 -11.0523 0.00882202 107 102 125
1.30819 1.23923 0.00821296 61 132 116
1.24194 5.48953 0.00704099 70 53 108
-25.2179 -3.75643 0.00659915 74 62 98
-25.2846 0.435241 0.00848901 77 62 105
-3.27983 -15.1633 0.00641041 134 144 145
-3.34761 -10.9118 0.00881189 103 98 121
-3.41549 -8.2142 0.00891613 94 86 123
-3.4816 -3.96095 0.00912254 70 80 115
-48.4408 -3.75228 0.00754595 62 49 92
2.86453 -17.2552 0.0082983 158 164 154
2.52583 5.08897 0.00631961 70 51 107
2.05508 2.59127 0.00848294 73 80 109
-7.12553 -4.2975 0.00721342 80 72 113
-7.19643 1.10331 0.00826712 69 62 106
-7.2612 5.35375 0.0109219 64 51 105
-1.79431 -6.39016 0.00907013 83 76 117
-1.99724 6.77242 0.00778076 67 50 105
-0.511802 -6.72565 0.0094619 88 80 121
-23.8649 0.702012 0.00954168 72 59 102
-44.3187 -1.18944 0.00715625 65 52 99
-44.4134 3.1894 0.0185013 56 54 94
-23.2586 3.59778 0.0079373 69 80 100
-23.1238 -4.90078 0.00729299 48 140 89
-34.8025 0.226967 0.00601366 68 55 99
-34.7333 -4.02325 0.00729309 62 62 88
-2.53515 -0.315376 0.0102379 56 142 107
-48.9118 -7.53316 0.00776341 49 89 79
-1.25377 -11.6514 0.00891432 110 101 128
-1.5257 5.96407 0.00782476 67 52 107
-48.9104 -4.70376 0.00733854 63 50 94
-24.7511 2.24673 0.00933357 66 55 101
-47.1607 -3.89132 0.00838368 64 48 95
-47.2224 0.360223 0.0061383 61 56 96
-48.7067 -8.27664 0.00933755 44 102 67
-48.7765 -5.44024 0.00820484 65 48 93
-48.8416 -8.34574 0.00884938 44 101 66
-48.9096 -3.95642 0.00697096 63 51 95
-25.6212 0.224485 0.00886611 75 62 105
-25.558 -4.02487 0.0079564 67 60 93
-45.0605 -4.22795 0.00923546 42 58 76
-45.1312 0.294149 0.00640553 64 55 97
-33.9256 -2.81153 0.00601527 66 58 95
-33.9939 1.57662 0.00569808 69 56 100
-38.9215 -4.1591 0.00752 59 68 79
-38.9871 0.226329 0.00592451 69 56 99
-31.4234 3.9396 0.00877118 46 118 84
-31.2918 -4.56526 0.00542492 58 123 91
-31.359 -0.313064 0.00646651 73 58 103
-24.4721 1.44453 0.0080602 70 57 100
-24.4081 -2.47605 0.00742501 74 62 99
-1.65861 -0.113063 0.00976104 56 142 107
-31.2229 4.07602 0.00741272 44 115 81
-31.1574 -0.110151 0.00670819 76 59 104
-31.0908 -4.49845 0.00653791 53 116 89
-46.343 -5.1033 0.00919148 35 96 72
-46.4119 -0.717647 0.00647455 64 55 100
-46.4642 3.43242 0.0208542 53 61 92
-45.6009 -1.05769 0.0080014 62 53 98
-45.6605 3.3422 0.0191696 61 59 98
-48.8382 -3.88979 0.00913194 63 51 94
-48.7753 -8.27669 0.0081783 45 102 67
-21.9812 -0.250067 0.00907966 71 60 102
-22.0472 3.94014 0.0108153 61 108 92
-44.6595 -3.69342 0.00910481 61 43 95
-44.7255 0.363352 0.00717165 64 55 98
-23.6652 2.79767 0.00961849 69 53 100
-23.5949 -1.52733 0.00819616 72 61 101
-2.54068 0.700732 0.00911032 54 139 106
-22.9878 -0.174135 0.0098316 71 58 102
-23.0628 4.21399 0.0107545 43 103 77
-45.3342 -2.33618 0.00760329 64 50 99
-45.3986 1.7789 0.00590408 62 55 97
-31.2247 1.57619 0.00641919 74 59 102
-31.1569 -3.01454 0.00591017 75 63 101
-34.1957 -0.580921 0.00651374 68 55 99
-34.2609 3.80278 0.00835748 45 100 81
-34.1266 -4.22847 0.00690857 52 67 74
-35.6122 -1.79582 0.00594704 67 59 98
-35.6783 2.28929 0.0147793 64 55 100
-39.1325 3.99295 0.0168534 32 114 73
-39.0552 -0.246301 0.00606923 73 60 103
-38.986 -3.21403 0.0076738 66 56 91
-41.2177 -2.60679 0.00690548 66 53 95
-41.2821 1.77854 0.00628906 62 53 98
-28.5252 -3.41857 0.00634505 69 57 96
-27.7834 -1.26255 0.00775777 72 60 100
-28.591 0.835043 0.00797392 75 60 101
-27.8528 3.26415 0.00903278 65 59 97
1.51554 -7.47233 0.0100568 89 83 121
-3.0761 -0.784358 0.00889803 57 143 108
-3.20978 8.05667 0.00754401 237 188 254
-38.3792 -3.61735 0.00878028 64 57 90
-38.4472 0.76393 0.0052282 69 56 102
-32.7765 -4.8359 0.00716139 49 131 84
-2.87457 -9.62798 0.0080727 98 91 122
-3.07916 3.53578 0.00873808 39 63 87
-2.87433 -5.1761 0.00872864 85 76 123
-3.07859 7.71925 0.00879325 126 98 185
-31.1575 -1.3248 0.00601365 72 57 98
-35.7496 -0.380091 0.00603581 71 58 101
-35.6771 -4.63291 0.00667381 46 126 78
-47.2203 1.64533 0.00661681 58 56 95
-47.1555 -2.74218 0.00832053 60 47 90
-47.0893 -6.38873 0.00930803 38 101 71
-5.84406 -8.67907 0.00652223 93 86 117
-5.9792 -0.177785 0.00927501 59 75 100
-6.04844 4.07029 0.008683 65 52 106
-45.1326 -3.88883 0.00870121 59 46 92
-45.1937 0.36174 0.0067542 63 54 98
-45.5348 -3.21519 0.00936053 66 48 97
-45.6008 1.0352 0.00653439 63 54 99
-2.40342 0.494247 0.00842824 55 141 106
-23.8633 -2.54095 0.00722215 74 62 102
-24.0017 0.088699 0.00927304 74 61 105
-1.46059 0.971881 0.0087968 52 137 106
-50.0603 -8.0771 0.00955476 68 50 86
-45.9434 -0.314049 0.00692699 65 56 101
-45.8722 -4.83394 0.00772112 26 95 57
-45.94 -0.244846 0.00652167 65 56 101
-45.8694 -4.36301 0.00807911 46 91 78
-45.9406 -1.12432 0.00726479 62 53 98
-46.0054 2.18472 0.00639347 58 52 97
-45.942 -2.06871 0.00697556 63 51 96
-49.1117 -6.25448 0.00764121 66 49 93
-46.0697 4.07846 0.0170614 22 110 68
-46.0084 -0.786315 0.00707718 63 54 99
-45.9433 -5.03717 0.00841878 26 93 57
-39.931 0.631015 0.00568312 65 56 99
-39.8634 -3.75636 0.00699273 63 56 90
-46.0757 2.79209 0.00552383 59 52 96
-46.0077 -1.66117 0.00674977 60 51 96
-40.4057 0.767527 0.00579163 63 55 99
-40.3365 -4.09379 0.00789816 56 55 86
-48.5722 -4.90041 0.00787725 64 50 92
-48.843 -3.95848 0.00695275 62 50 95
-48.7766 -8.2113 0.00978455 44 103 66
-49.9868 -8.28028 0.00785224 63 54 81
-48.5071 -6.45474 0.00788728 65 48 90
-45.7399 2.7232 0.00695871 59 53 97
-45.6693 -1.66321 0.00690588 60 51 96
-46.8166 2.38859 0.00596627 59 54 97
-46.7492 -1.86663 0.00688978 63 52 96
-46.6798 -6.12239 0.00784618 38 103 73
-48.1664 -0.650736 0.00630824 61 54 96
-48.0972 -4.90137 0.00796686 63 48 94
-48.3031 -2.06535 0.00732529 61 52 97
-48.2334 -6.31997 0.00960684 59 50 87
-46.0772 0.0264559 0.00632153 63 54 99
-46.0087 -5.37686 0.00963843 40 101 68
-41.958 2.72421 0.00512436 59 52 96
-41.8881 -1.66448 0.00678506 66 50 97
-41.2154 3.06154 0.00487084 63 54 99
-41.1483 -1.12475 0.00653285 66 53 99
-50.1288 -9.22474 0.00832853 46 105 72
-8.47817 -4.5679 0.00632043 80 69 109
-8.40215 -8.94876 0.0113337 94 86 107
-8.68334 8.12577 0.00968647 71 68 197
-38.3796 1.10413 0.00525823 64 55 99
-38.3104 -3.01274 0.00722298 65 58 90
-42.6319 -0.98983 0.00746628 64 54 101
-44.9951 2.65714 0.006484 60 53 97
-44.9279 -2.0686 0.00702499 64 52 98
-50.3929 -9.83459 0.00819959 48 104 69
-48.4333 -3.82229 0.00718849 61 49 92
-46.8197 0.832768 0.00679585 61 55 100
-46.7507 -3.55515 0.0071637 59 46 90
2.45673 -10.3688 0.0106709 101 96 126
-43.6613 3.45392 0.0215781 49 60 87
-43.5815 -0.852 0.00668265 67 55 101
