ply
format ascii 1.0
comment Created by Open3D
element vertex 1220
property double x
property double y
property double z
property uchar red
property uchar green
property uchar blue
end_header
0.234039 2.31828 0.00826167 93 176 122
0.29613 -1.93458 0.00924571 88 177 111
0.363838 -6.18223 0.00907723 111 96 122
0.429696 -11.5846 0.00847062 129 117 126
-4.76467 9.06974 0.00736328 106 89 134
-4.69487 4.34981 0.0085772 113 90 136
-4.63023 -0.0407697 0.00902849 108 92 126
-4.56321 -4.15747 0.00849848 111 92 120
-4.49556 -8.54784 0.00803161 113 101 115
0.0963842 6.43779 0.0075271 119 95 143
0.163242 2.38953 0.0088991 90 173 121
0.228629 -1.86414 0.0089334 90 176 111
0.298419 -6.39208 0.00894211 113 95 119
0.367618 -10.64 0.0106471 121 109 122
-3.61739 5.9661 0.00807337 107 87 136
-3.54992 1.57454 0.0088451 100 96 123
-3.41769 -6.92945 0.00925028 110 97 117
-3.47901 -2.54117 0.00942352 91 100 105
0.0972094 2.52122 0.00787073 89 173 121
0.160886 -2.3415 0.0112993 90 179 111
0.297913 -10.8469 0.00877769 121 109 123
0.227875 -6.59239 0.0102204 113 97 119
11.0989 -4.77085 0.00786272 110 94 131
0.0271714 2.65551 0.00792289 90 177 122
0.0919897 -1.72628 0.00909328 91 178 115
0.162353 -5.64899 0.00917528 111 96 125
0.228978 -10.0345 0.0101473 120 108 118
-0.0408327 2.79108 0.00748248 92 177 122
0.0282301 -1.73066 0.0101631 91 177 114
0.163096 -10.0365 0.0085821 122 109 119
-5.16694 10.283 0.0150824 76 104 107
-5.10181 5.76425 0.00847177 109 92 136
-5.03377 1.51089 0.00895441 108 92 131
-4.96867 -3.61765 0.00966953 109 96 124
-4.90142 -7.87534 0.00714151 107 95 109
-0.0369651 2.72411 0.00826605 92 177 122
0.0264657 -1.66457 0.0089225 91 180 116
0.096692 -6.05209 0.0115978 110 96 122
0.165498 -9.96724 0.00922141 120 108 118
0.0943574 -10.1669 0.0100394 123 108 121
0.0288843 -5.91519 0.00989124 110 96 122
-0.0447319 -1.66325 0.00979251 90 179 114
-0.10437 2.78812 0.00799115 92 177 122
0.0239237 -5.98082 0.00949818 111 97 122
0.0964822 -10.3724 0.00957847 121 109 121
-0.10759 -1.53108 0.00901719 87 176 112
-0.0392113 -5.91396 0.00999548 111 97 122
0.0290902 -10.2984 0.0101301 121 109 121
-0.243666 4.41606 0.00868874 110 91 137
-0.178115 0.154624 0.00847882 91 177 114
-0.106357 -5.7781 0.00999529 110 96 122
-0.310703 3.12645 0.0084268 93 167 130
-0.245293 -1.38931 0.00918376 90 176 113
-0.102697 -8.61555 0.00902289 116 102 119
-0.376986 2.98961 0.00834493 91 173 124
-0.312415 -1.39515 0.0100097 89 175 112
-0.239424 -5.50616 0.0092113 111 97 123
-0.173261 -9.89608 0.00962444 121 107 120
-26.2327 1.98567 0.00981387 109 83 107
-0.307423 -1.32652 0.00982374 94 179 114
-0.243584 -5.57501 0.00915237 111 97 123
-0.179801 -9.83248 0.00920318 121 107 120
-0.514306 7.04334 0.00716922 124 100 150
-0.445108 2.79685 0.00796921 92 177 122
-0.378642 -1.25913 0.00928626 91 176 111
-0.308459 -5.506 0.00914325 111 97 123
-0.239124 -10.0329 0.010055 124 108 121
-22.9913 -3.68761 0.00803285 96 74 102
-23.0577 0.695627 0.00906742 100 78 104
-17.6567 -3.15469 0.00945529 98 84 109
-17.7287 1.44258 0.00956805 104 85 113
-0.446852 -0.719833 0.00875737 90 179 113
-0.377292 -5.30412 0.00991748 110 95 124
-0.309664 -9.5602 0.0082283 118 105 115
-3.8901 7.99133 0.00804489 109 90 135
-3.81917 3.73943 0.00857908 108 90 132
-3.7516 -0.782614 0.0101128 72 112 88
-3.68734 -5.03639 0.00807658 109 95 120
-3.61805 -9.08575 0.00802835 117 100 116
-0.578422 3.60295 0.00865372 102 99 128
-0.514612 -0.651504 0.00907251 90 177 112
-0.445133 -4.90217 0.00969277 110 95 124
-0.377808 -9.76113 0.0085017 120 106 119
-0.579615 3.53339 0.00878035 95 106 125
-0.511772 -0.584088 0.00874978 90 177 109
-0.445272 -4.97329 0.010733 109 94 123
-0.377244 -9.69042 0.00908398 121 105 118
-0.643573 3.33163 0.00772635 96 138 128
-0.580679 -1.05064 0.00858986 89 178 110
-0.512041 -5.17221 0.00990688 109 93 122
-0.444602 -9.56203 0.00997178 118 105 115
-0.71497 3.19523 0.00799872 87 155 118
-0.648794 -0.990167 0.00936389 89 178 112
-0.578803 -5.37636 0.010194 111 97 123
-0.91685 7.31375 0.00751338 121 100 143
-0.848086 2.92454 0.00842971 90 166 120
-0.782349 -1.46199 0.00929343 91 176 111
-0.849523 2.85462 0.00844747 91 173 124
-0.779509 -1.39112 0.00922618 92 177 111
-0.715016 -5.64733 0.00924471 110 96 122
-0.913458 2.92806 0.00925338 93 166 121
-0.780693 -5.85133 0.00947075 110 96 120
-0.71414 -10.1048 0.00821967 120 106 119
-1.12288 4.34532 0.00855743 109 87 136
-1.05244 -0.0409594 0.00929948 86 175 109
-0.915672 -8.88404 0.00964553 115 103 117
-1.19091 4.41133 0.00821255 111 89 138
-1.11967 0.0215367 0.00879363 86 175 111
-1.05122 -4.36304 0.0100628 79 77 98
-0.985035 -8.74993 0.0095855 115 103 118
-1.18622 0.0888898 0.0091157 87 176 112
-1.11851 -4.29564 0.0103324 138 146 159
-1.32029 6.02955 0.00685513 112 95 139
-1.25402 1.77582 0.00856125 92 173 115
-1.18916 -4.70345 0.00990802 109 94 123
-1.12116 -8.95358 0.00947116 115 102 119
1.30788 -10.7098 0.00875548 121 109 121
1.2387 -6.32776 0.0106404 113 99 122
1.176 -1.59289 0.00915161 88 176 116
1.10545 2.79163 0.0076243 96 167 123
-1.59034 5.35801 0.00872923 111 89 136
-1.52198 0.970422 0.00919453 92 177 112
-1.728 4.95453 0.00786924 113 91 140
-1.66218 0.56305 0.00986256 91 177 112
-1.59071 -3.55211 0.0101721 94 173 110
-1.79701 4.34524 0.00783293 111 94 139
-1.72685 0.56669 0.00903897 93 178 113
-1.65929 -3.68882 0.00997872 96 171 114
-1.59328 -7.93798 0.00948911 112 99 116
-1.5904 -7.87136 0.00918925 110 97 114
-1.65724 -3.75805 0.0106515 97 170 118
10.2857 -6.52097 0.00840101 102 106 118
-9.55452 4.94811 0.00943687 100 83 128
-9.4937 0.701923 0.0105032 108 93 122
-9.42191 -3.55417 0.00706857 104 90 116
-9.3538 -7.80654 0.0105021 97 102 86
-1.7975 -8.5517 0.00915082 116 101 120
-1.86206 -4.1611 0.00882586 104 104 119
-1.93038 0.223656 0.00995859 92 176 114
-1.99881 4.61364 0.00797593 111 93 135
-0.378068 -5.50916 0.0103519 111 97 123
-0.306172 -9.89858 0.009617 121 107 120
-0.446592 -1.59452 0.00925934 85 174 108
-0.513107 2.78969 0.00805013 91 176 121
-1.79634 -8.47852 0.0093091 115 101 119
-1.86201 -4.22656 0.00993895 106 101 121
-1.92803 0.29745 0.010297 90 174 112
-1.99877 4.54781 0.0079461 111 93 135
-2.06298 4.67867 0.00796148 111 93 136
-1.99929 -0.177028 0.00907153 90 177 109
-1.9334 -4.42907 0.0101946 111 96 125
-1.86244 -8.67839 0.00857499 116 102 119
-17.9251 4.07356 0.0103643 60 140 81
-17.8598 -0.173762 0.0108301 103 85 112
-17.7971 -4.42861 0.00935808 68 135 81
-2.40096 6.77317 0.00775755 115 96 141
-2.26911 6.03074 0.00731868 114 90 135
-2.19924 1.64116 0.0090034 98 177 120
-1.99765 -11.0486 0.00768614 127 115 125
-2.12979 -2.74133 0.00943603 94 180 115
-2.06342 -7.13056 0.00926062 110 97 117
-19.4073 2.65816 0.0108263 95 80 107
-19.3393 -1.72587 0.0104444 98 82 105
-2.26544 -2.47338 0.010865 95 184 118
-2.19819 -6.86157 0.00826511 111 96 117
-2.13202 -10.9788 0.00865516 125 113 125
-2.26573 -2.53969 0.00996608 97 186 120
-2.19901 -6.78776 0.00871912 111 97 118
-2.13234 -11.048 0.00942848 126 114 126
-2.74232 7.24515 0.00735735 110 90 134
-2.67238 2.72367 0.0090893 102 94 128
-2.60164 -1.52983 0.00860413 93 180 114
-2.53885 -5.57543 0.00899258 109 95 120
-2.26607 -7.54026 0.0081879 112 97 118
-2.47321 -9.83111 0.00925388 119 107 119
-21.4374 0.091614 0.00938339 99 81 105
-21.3672 -4.15915 0.0075398 99 83 97
-18.6068 0.0877598 0.0106362 99 83 109
-18.5326 -4.1621 0.00889804 99 87 105
-2.67422 7.18114 0.00830243 113 90 137
-2.60472 2.92395 0.00953417 106 94 134
-2.47011 -5.65136 0.00861667 108 94 119
-2.40507 -9.9002 0.0091164 120 107 119
-2.53816 6.57421 0.00708093 112 93 139
-2.46836 2.32297 0.00896733 101 145 128
-2.33409 -6.45464 0.00827443 108 95 115
-3.01208 7.1775 0.00715302 109 91 133
-2.94264 2.9281 0.00837061 110 89 135
-2.8078 -6.18757 0.00800614 108 95 116
-2.73998 -10.4374 0.0083091 125 109 121
-3.00887 7.1122 0.00757112 111 93 135
-2.94341 2.99036 0.00892347 110 88 134
-2.87465 -1.39052 0.00931551 93 176 116
-2.80952 -6.12151 0.00991459 108 94 117
-2.74162 -10.506 0.00809419 126 110 121
-2.94438 7.11154 0.00812679 110 91 136
-2.87462 2.86084 0.00836063 108 91 132
-2.80763 -1.72572 0.00885017 95 180 114
-2.7395 -5.9774 0.010021 109 95 118
-2.67135 -10.5064 0.00749413 123 109 122
-25.155 2.04024 0.00919215 107 82 108
-2.8755 7.51865 0.0080595 111 89 135
-2.80757 2.25141 0.00835204 99 105 121
-2.7416 -2.13851 0.00995851 88 172 112
-2.67376 -6.25132 0.0101606 108 95 115
-2.60504 -10.6439 0.007931 123 110 122
-24.2132 3.73232 0.0106558 91 77 98
-24.1366 -1.11998 0.0090676 101 77 100
-3.21227 7.51735 0.0079191 108 89 134
-3.1453 3.12992 0.00872285 107 89 131
-3.07587 -1.32559 0.00874994 93 170 114
-3.01014 -5.71376 0.00845522 110 94 120
-2.93908 -10.1019 0.00735692 122 107 118
-3.28113 7.65171 0.00702128 108 89 135
-3.14718 -1.1253 0.00925812 93 170 114
-3.07889 -5.71437 0.0086005 110 94 120
-3.00855 -9.96719 0.0085058 120 107 117
-3.27816 7.58522 0.00782263 108 89 135
-3.21038 3.198 0.00917836 107 89 131
-3.00883 -10.0357 0.00795638 121 107 118
-3.0766 -5.64741 0.00846717 110 94 120
-12.6662 -4.84108 0.00986746 71 162 83
-12.7263 -0.721507 0.0119415 107 90 120
-12.8018 3.672 0.0114947 77 92 103
-3.07776 -9.96713 0.00772415 120 107 117
-3.14505 -5.50802 0.00834 112 94 119
-3.21593 -1.12538 0.00895397 90 167 111
-3.28018 3.26571 0.00858495 108 90 132
-3.35088 7.65257 0.00725088 109 90 136
-3.55107 7.9887 0.00769182 111 89 135
-3.48061 3.46519 0.00805607 109 91 133
-3.41272 -0.781803 0.00898981 89 166 110
-3.28129 -9.62694 0.00756363 118 105 120
-3.81869 8.39599 0.00741512 109 87 133
-3.75048 4.27926 0.00986814 108 91 135
-3.62002 -4.30081 0.0091153 113 95 121
-3.55162 -8.68162 0.00834868 113 100 117
-3.88597 8.18952 0.007294 111 89 135
-3.81664 3.80334 0.00812365 108 88 131
-3.75172 -0.309978 0.00932769 83 116 107
-3.68708 -4.69987 0.00983461 111 95 121
-3.6166 -9.42722 0.00736668 121 104 118
-4.15678 8.93499 0.00667042 108 89 134
-4.02328 0.162617 0.00849127 102 99 116
-3.95809 -4.22508 0.00954742 111 93 119
-3.88516 -9.22308 0.00782997 121 104 120
-4.22272 8.53305 0.00728119 107 89 133
-4.15736 4.61576 0.00848383 114 92 138
-4.09141 0.226179 0.00909162 103 97 118
-3.95661 -8.54961 0.00789548 113 100 117
-4.22386 9.00212 0.00720526 108 91 133
-4.15508 4.13824 0.00893995 109 92 136
-4.08754 -0.113299 0.00872976 101 98 117
-4.02214 -4.36061 0.00824674 111 93 120
-3.95246 -8.61618 0.00840206 113 101 116
-4.3615 7.04405 0.00747187 111 90 131
-4.29176 2.65417 0.00842239 109 93 132
-4.1573 -5.64969 0.00842735 109 94 117
-4.09103 -10.0364 0.00791712 122 106 119
-4.42774 6.91239 0.00811273 112 96 135
-4.36042 2.65918 0.00851902 109 93 132
-4.29273 -1.59451 0.00900201 106 97 121
-4.22263 -5.85084 0.00853033 108 94 117
-4.15689 -10.1674 0.00713904 124 108 121
-4.36209 -1.52958 0.00853742 107 98 122
-4.29281 -6.05101 0.00960986 108 94 117
-4.22305 -10.3005 0.00668535 124 108 118
-4.4236 2.79537 0.00936074 110 94 133
-4.36102 -1.60154 0.00883476 108 96 122
-4.29324 -5.97972 0.00916962 108 94 117
-4.22407 -10.3687 0.00783117 125 109 119
-4.49636 6.572 0.00792345 105 87 129
-4.42899 -1.39316 0.00986929 112 100 126
-4.3617 -5.78213 0.00795896 107 93 116
-4.29274 -9.89999 0.00733604 121 105 118
-4.56362 6.63769 0.00840964 104 87 129
-4.49308 2.25302 0.00891571 109 91 133
-4.4263 -5.71233 0.00761502 107 93 116
-4.36066 -10.1032 0.00667346 124 108 119
-4.62125 9.59633 0.00951635 107 90 135
-4.56043 5.08979 0.00857784 110 91 136
-4.49714 0.831725 0.00898696 108 91 127
-4.42622 -4.29929 0.00855655 108 92 117
-4.76614 9.27381 0.0073608 106 88 136
-4.69897 5.22403 0.00838706 108 89 135
-4.62616 0.970117 0.00904657 107 89 127
-4.5638 -3.55394 0.00889941 108 93 122
-4.49436 -7.80721 0.0082226 107 95 109
-4.8283 10.0219 0.0103136 108 89 135
-4.76574 5.75669 0.00850864 106 89 133
-4.69784 1.17484 0.00849757 110 89 128
-4.6304 -3.07814 0.00850814 108 94 122
-4.56345 -7.60219 0.00835443 110 96 114
-4.83403 10.2108 0.0106768 100 90 125
-4.76271 5.82828 0.00837553 107 90 134
-4.69573 1.10416 0.0092408 108 90 130
-4.63234 -3.28097 0.00925415 109 96 123
-4.56317 -7.40058 0.0082617 112 94 116
-20.8977 3.66689 0.0102953 91 79 102
-20.8334 -0.719011 0.010117 95 79 102
-3.61679 2.59022 0.00888555 110 92 134
-3.54877 -1.79475 0.00909442 92 130 114
-3.48063 -6.18578 0.00871466 110 95 118
-3.41333 -10.573 0.00823185 126 110 120
-4.83027 5.89588 0.00807582 109 92 136
-4.76486 1.50726 0.0108105 107 91 130
-4.69868 -3.21358 0.00882279 106 92 120
-4.63079 -7.60437 0.0085496 108 95 113
-24.7435 2.17643 0.00859937 107 84 112
-4.96561 9.80661 0.011042 105 90 133
-4.89749 5.42124 0.00829079 109 91 133
-4.83218 1.30488 0.00862762 107 89 128
-4.76475 -3.08292 0.00831559 109 96 124
-4.69656 -7.26494 0.00829465 110 94 115
-5.03661 9.74234 0.0111904 105 89 133
-4.96702 5.42595 0.00791161 112 91 134
-4.90042 1.17516 0.00882456 110 90 127
-4.76509 -7.33167 0.00725269 109 95 116
-24.8806 2.58466 0.00971172 103 77 102
-24.8152 -1.53088 0.00774927 0 0 0
-5.03114 9.68433 0.0130318 104 89 132
-4.96578 5.49371 0.00919377 109 91 133
-4.89957 1.10341 0.00903397 110 90 127
-4.83036 -3.01741 0.00893206 109 95 124
-4.76561 -7.39964 0.00738687 108 95 115
-3.95371 7.44791 0.00789218 110 92 137
-3.88637 2.85949 0.00904189 109 93 132
-3.82068 -1.38897 0.00896048 86 101 98
-3.754 -5.91262 0.00788408 113 95 119
-3.68288 -10.1653 0.00765552 124 108 121
-5.17018 9.34016 0.00829833 106 88 136
-5.1039 5.08806 0.00836324 111 88 135
-5.0368 0.835062 0.00854914 107 91 127
-4.97036 -2.94669 0.00937689 111 96 125
-4.90007 -7.19884 0.00757098 110 97 117
-22.9907 3.67549 0.0105616 92 77 100
-22.9234 -0.851249 0.00901864 102 78 104
-5.37089 8.93296 0.00761511 105 87 135
-5.30748 4.68434 0.00862795 110 90 133
-5.23893 0.361387 0.00847953 110 94 126
-5.16774 -3.89151 0.00842894 109 95 121
-5.1053 -8.143 0.00779199 112 97 116
-15.4355 3.94103 0.0105475 72 147 98
-15.3608 -0.585713 0.0108339 102 86 115
-15.3002 -4.83349 0.00900021 71 162 83
-22.3845 -3.62043 0.00692262 97 76 102
-22.4455 0.769791 0.00845291 102 82 107
-5.50558 8.52966 0.0073565 104 86 134
-5.44028 4.27684 0.00878236 112 93 138
-5.37242 0.0223525 0.00827491 109 92 124
-5.30761 -4.2286 0.00829877 111 97 123
-5.23727 -9.08806 0.00742279 119 102 118
-16.9829 2.99249 0.0119285 98 84 110
-16.9168 -1.39276 0.00991076 104 87 113
-5.23821 -8.88548 0.00761265 114 102 116
-5.30781 -4.42995 0.00902749 113 99 125
-5.37427 -0.0433088 0.00964616 109 92 124
-5.43806 4.34508 0.00876155 110 92 134
-5.50969 8.73073 0.00686736 103 85 133
10.8289 -3.48613 0.00718708 117 96 137
10.8955 -7.73819 0.00841663 102 172 112
-5.57503 7.85527 0.00828567 104 87 129
-5.50453 4.34385 0.00843684 109 91 133
-5.43826 0.0914386 0.00954973 110 93 125
-5.37232 -4.42707 0.00827182 112 98 124
-5.30401 -8.6817 0.007198 113 101 115
-5.71053 7.98839 0.00772824 103 86 128
-5.63988 3.46626 0.00895125 111 95 135
-5.57547 -0.784959 0.00889554 111 93 125
-5.50782 -4.29783 0.008368 110 96 122
-5.43917 -8.54832 0.00727012 113 101 115
-5.77862 7.785 0.00833738 104 87 130
-5.71012 3.53739 0.00910805 111 95 134
-5.64235 -0.720641 0.00854245 110 93 125
-5.57282 -4.97422 0.00849276 113 95 119
-5.50734 -8.74877 0.0092651 114 100 113
-25.8925 2.25375 0.00946805 101 75 104
-0.84827 3.60209 0.00820907 110 95 136
-0.780223 -0.516934 0.00901691 89 176 108
-0.644469 -10.1657 0.00798868 119 107 119
-5.84547 8.19012 0.00743166 104 87 132
-5.77942 3.60363 0.00889859 109 94 135
-5.70853 -0.653772 0.00865686 110 93 127
-5.64012 -5.1747 0.00852802 113 95 118
-5.5752 -9.43003 0.00738041 119 104 117
-1.3895 -7.46935 0.00906484 111 97 121
-1.52687 0.83474 0.00912351 90 175 108
-1.59083 5.22186 0.00748158 114 92 139
-11.1132 -2.06341 0.0125894 109 89 119
-11.1753 2.31956 0.0107814 106 87 122
-6.45277 5.82346 0.0087491 108 87 130
-6.38624 1.57968 0.00822671 113 94 126
-6.31479 -2.47717 0.00851732 112 93 125
-6.25043 -6.72765 0.00769908 109 94 113
-5.50935 5.35575 0.00986705 107 89 132
-5.43844 0.969964 0.00870572 113 93 128
-5.37618 -3.14665 0.00955883 111 94 122
-5.3048 -7.53855 0.00826461 113 102 118
-6.65628 9.06798 0.00810621 91 86 118
-6.52008 5.89909 0.00866331 107 88 131
-6.45542 1.64245 0.00952889 110 94 123
-6.38314 -2.61055 0.00868008 107 92 121
-6.31809 -6.93008 0.00692857 111 95 114
-6.58759 5.9654 0.00904103 108 90 132
-6.52348 1.71175 0.00830874 113 94 126
-6.45372 -2.80984 0.0081613 108 93 122
-6.3852 -7.06171 0.00777908 111 94 113
-6.31806 -11.1148 0.00604562 81 178 79
-27.5807 3.59999 0.00913589 94 69 91
-6.72268 9.39698 0.00813143 61 101 92
-6.65462 5.15788 0.0084155 107 92 131
-6.58501 -3.21564 0.0086152 107 92 121
-6.51946 -7.47064 0.00795311 112 95 117
-6.84356 9.48087 0.0129068 89 154 120
-6.72307 0.969113 0.00815146 113 98 129
-6.65692 -3.41591 0.00840107 108 94 120
-12.6586 3.66641 0.0109211 84 97 107
-12.5943 -0.723875 0.00986644 111 91 120
-12.5284 -4.09386 0.00974898 107 92 115
-7.05966 9.13666 0.0085572 68 114 98
-6.99255 4.61335 0.00841375 104 89 128
-6.9233 0.361314 0.00778231 113 98 129
-6.85543 -4.22611 0.00744586 108 93 121
-6.79013 -8.48184 0.00702875 111 99 111
-7.06387 8.93619 0.00785151 106 116 128
-6.99268 4.81182 0.00837487 106 90 129
-6.9243 0.431631 0.00861805 115 100 131
-6.85829 -4.29562 0.00735023 108 94 120
-6.78995 -8.6815 0.00609343 113 98 114
-12.6663 3.60427 0.0108588 93 92 112
-12.5991 -0.652676 0.0109982 109 92 119
-12.5232 -4.15627 0.00975458 106 92 117
-6.98941 9.1398 0.00953416 55 92 85
-6.92685 4.74935 0.00915691 105 90 129
-6.85556 0.0264481 0.00898778 109 94 125
-6.79224 -4.36205 0.00702959 107 93 118
-6.7226 -8.48022 0.00777322 111 99 111
-7.1288 4.4112 0.00871266 106 94 132
-7.05798 0.0214525 0.00822598 112 97 128
-6.99375 -4.09242 0.00786768 109 93 122
-6.92555 -8.48121 0.00610577 111 98 110
-7.26128 4.95472 0.00827148 108 92 131
-7.19402 0.699491 0.00864507 114 99 128
-7.12594 -3.88996 0.00814649 107 92 121
-7.05938 -8.14308 0.00653627 109 96 114
-7.46937 5.76094 0.00938966 106 90 129
-7.39883 1.4415 0.00769044 115 94 127
-7.32738 -2.81193 0.0079422 111 96 125
-7.26331 -7.06306 0.00749662 108 95 115
-29.3391 3.86793 0.00802294 89 66 88
-7.5966 7.51976 0.00852688 104 88 127
-7.53318 3.26503 0.00966102 107 91 125
-7.46699 -0.987953 0.00793222 112 97 128
-7.39555 -5.84839 0.00694795 105 91 114
-7.33166 -10.1118 0.0124007 101 142 83
-7.73502 6.03236 0.00988803 109 91 131
-7.66691 2.92836 0.00913188 108 92 128
-7.59921 -1.46274 0.00815401 109 93 126
-7.53096 -5.57608 0.00673337 108 90 114
-7.46945 -9.96885 0.0146295 81 105 62
-7.73551 6.10607 0.00940513 109 91 131
-7.60414 -1.38893 0.00820178 108 94 124
-7.53068 -5.64681 0.00672858 105 90 113
-7.45902 -9.89384 0.0127823 82 96 69
-16.4404 2.32011 0.012297 100 86 112
-16.3732 -2.06254 0.0104063 103 85 114
-7.81019 6.10255 0.0110715 108 90 130
-7.73419 1.71656 0.00769447 116 96 131
-7.66948 -1.39198 0.00843813 108 93 125
-7.60073 -5.78057 0.00693275 104 90 115
-7.53251 -9.89904 0.0115625 77 105 60
-0.58073 5.69213 0.00731015 117 95 141
-0.511176 1.57988 0.00829777 93 174 118
-0.441481 -2.8109 0.010637 88 179 110
-0.376837 -7.54175 0.00924393 110 95 114
-8.87793 7.38091 0.00948917 58 68 74
-8.8157 3.12909 0.0105205 112 96 134
-8.74736 -4.42776 0.0065447 107 91 115
-8.67339 -8.66959 0.0136215 85 100 76
-25.2202 4.20698 0.0110923 57 126 65
-25.1534 -0.175746 0.00797364 98 76 101
-9.01363 7.65365 0.00842141 88 125 118
-8.94871 3.39932 0.0103136 107 92 131
-8.88311 -1.12499 0.00721255 111 92 124
-8.81421 -5.3768 0.00641878 108 92 118
-25.283 0.56609 0.0102193 97 73 97
-25.2805 0.700687 0.00855605 95 73 97
-6.24915 7.1813 0.00824463 107 90 132
-6.18224 2.93003 0.00917302 113 92 131
-6.11578 -1.32599 0.00801707 110 94 126
-6.04811 -6.72861 0.00678875 110 95 114
-5.97911 -10.9798 0.006127 101 128 92
-8.87689 -9.28196 0.0116206 84 184 81
-8.94947 -5.17261 0.00740366 109 91 115
-9.01722 -0.787229 0.00756182 112 92 124
-9.08276 3.40176 0.0110284 106 92 128
-9.15629 7.78515 0.00938632 81 101 102
-9.21889 7.65282 0.00835564 133 158 162
-9.1492 3.3961 0.0107139 105 91 127
-9.08667 -0.852294 0.00749313 110 91 121
-9.01653 -5.175 0.00697135 109 91 115
-9.2183 7.59272 0.00969171 100 125 127
-9.15341 3.46896 0.0105988 105 90 126
-9.0863 -0.919616 0.00733631 111 92 122
-9.0192 -5.10459 0.00621024 108 90 114
6.37092 -8.00433 0.00886897 110 95 116
-9.35827 7.10888 0.00940748 97 93 108
-9.29463 3.73609 0.0094307 106 90 127
-9.21814 -0.651889 0.00719297 111 94 123
-9.15152 -5.03863 0.00594981 107 89 113
-9.49304 7.25439 0.0101889 112 102 125
-9.42403 2.85643 0.0107232 110 94 131
-9.35613 -1.52612 0.00764382 105 90 119
-9.28743 -4.90226 0.00625538 107 88 113
-9.62069 4.20338 0.0111725 102 89 129
-9.55725 -0.246521 0.00724742 109 93 122
-9.49021 -4.63259 0.00658134 107 89 115
-9.9619 5.76346 0.00920187 135 120 162
-9.89504 1.50538 0.0111192 108 93 124
-9.81357 -4.42371 0.00756462 108 92 119
-10.1697 5.28699 0.00927212 20 16 37
-10.1001 1.10051 0.0112691 107 93 119
-10.0291 -3.28272 0.00651951 110 92 118
-9.96052 -7.39681 0.00891832 83 159 84
-10.2346 5.08391 0.00945712 103 102 120
-10.159 0.696425 0.0124461 106 91 122
-10.0999 -4.02012 0.0106615 103 89 114
-10.165 -3.55306 0.00620047 111 91 118
-10.2357 0.700693 0.0108633 106 91 122
-10.2999 4.95805 0.0103975 51 53 66
-10.3672 4.74937 0.0110022 97 103 117
-10.2989 0.497231 0.0121891 106 90 123
-10.239 -4.01893 0.0109531 104 90 115
-10.2977 -3.95967 0.0131627 104 90 115
-10.3665 0.291942 0.0111948 109 95 121
-10.4338 4.60612 0.0097575 90 95 111
-10.5744 4.20592 0.0105957 99 89 113
-10.9731 3.93476 0.0100885 87 130 108
-10.5038 -0.0441428 0.0108139 110 92 119
-10.4321 -4.29816 0.0112782 102 87 116
-10.6342 1.91129 0.0108363 104 89 120
-10.5695 -2.47302 0.00708445 107 93 118
-15.9684 4.07534 0.0102501 59 146 83
-15.9081 -0.442228 0.0102574 101 86 117
-15.8333 -4.69735 0.0102664 65 155 78
-10.9123 1.09686 0.0107937 106 89 121
-10.8441 -3.15111 0.00998872 106 90 116
-10.9063 -3.3529 0.0112397 104 90 115
-11.4397 -1.53217 0.0124043 111 92 122
-11.5188 2.65705 0.0126808 103 86 121
-11.4465 2.5852 0.0110612 103 86 122
-11.3781 -1.65797 0.0104181 111 92 122
-11.4464 2.52441 0.0119787 103 86 122
-11.3773 -1.86966 0.0102865 110 91 121
-11.2424 2.3169 0.0125845 107 87 122
-11.1776 -1.86501 0.010507 108 90 122
-11.1098 2.24976 0.0106951 110 90 122
-11.0425 -2.13751 0.0115285 110 89 120
-11.1088 2.18152 0.0124626 107 89 121
-11.0413 -2.06662 0.0120481 109 88 119
-11.5875 -2.73728 0.0103658 107 89 121
-11.6538 1.50471 0.0103066 103 88 118
-11.7136 2.99259 0.0107492 103 85 124
-11.651 -1.3855 0.01116 109 91 123
-11.7861 3.33262 0.0108081 100 94 126
-11.7164 -1.53604 0.010554 109 93 122
-11.8548 -1.25659 0.011292 111 92 124
-11.921 2.85417 0.0111573 104 88 125
10.1537 -7.66949 0.00822924 110 162 124
-11.9212 2.93133 0.0103492 106 90 127
-11.8542 -1.32722 0.0101965 109 90 122
-12.1206 3.6761 0.0106805 74 100 97
-12.0592 -0.725081 0.00964734 106 92 118
9.41841 -0.651149 0.0115119 120 97 143
9.48112 -5.17353 0.0087983 114 92 131
-12.2604 -0.787119 0.0114991 109 92 118
-12.3261 3.93968 0.00972756 69 147 100
6.36943 -3.82379 0.00783413 114 93 132
-12.3945 3.94494 0.0104242 66 142 96
-12.3238 -0.312866 0.0112293 107 90 119
-12.3956 4.00235 0.0111395 72 148 102
-12.3254 -0.377182 0.00970901 108 90 119
-12.4598 3.32844 0.0106883 99 89 126
-12.3914 -0.918197 0.0112139 108 93 118
-12.6012 0.0919554 0.0108032 104 89 119
-12.526 -4.90303 0.00983224 75 168 88
-12.5945 0.022732 0.0125231 104 90 116
-12.5248 -4.83585 0.00844781 70 164 83
-12.9968 0.0923875 0.0111851 107 89 121
-12.9347 -4.4215 0.0101276 81 135 93
-13.1321 0.968354 0.0112785 101 86 116
-13.0733 -0.108542 0.0100523 104 87 119
-12.9976 -4.36215 0.00841252 91 101 101
-13.4037 1.23605 0.0123088 102 85 117
-13.3379 -2.9449 0.00991174 106 87 115
-13.4734 1.23565 0.0122621 101 84 116
-13.4033 -3.01432 0.00941067 106 87 117
-13.6097 1.37273 0.0110524 105 90 121
-13.537 -2.87955 0.00979433 109 89 120
8.05923 -4.97179 0.00796531 111 94 126
8.12481 -9.35946 0.0104916 95 112 93
-13.7382 1.57087 0.0119517 99 84 115
-13.6776 -2.68051 0.00993211 106 91 117
-4.2208 -8.41181 0.00838463 116 101 116
-4.29211 -4.15971 0.00825848 111 93 120
-4.3612 0.361932 0.0096434 99 92 123
-4.42414 4.6145 0.00793315 125 102 148
-4.49536 9.20362 0.00847294 104 84 133
-13.808 -4.70486 0.00962619 67 152 79
-13.8788 -0.441666 0.0103328 104 88 117
-15.9641 3.86563 0.0119855 75 126 99
-15.9009 -0.248371 0.0100336 100 87 116
-15.8391 -4.63169 0.0101706 67 154 80
-14.0767 3.93821 0.00989413 70 147 100
-14.0079 -0.178133 0.0113082 102 86 118
-13.9461 -4.56619 0.00825266 68 150 78
-13.9426 -4.5002 0.0101513 76 151 88
-14.0069 -0.241356 0.00954101 106 90 120
-14.0825 4.00316 0.0113816 66 149 97
-14.1504 4.0015 0.0118988 69 150 97
-14.078 -0.381271 0.00996488 104 89 117
-14.0164 -4.50551 0.00884994 71 148 84
-14.4872 2.85964 0.0109296 91 82 111
-14.4183 -1.8624 0.00948957 108 90 118
-14.8913 1.9125 0.0116969 102 85 117
-14.8212 -2.60552 0.00968459 105 91 117
-15.1526 1.16988 0.0102404 110 91 119
-15.0951 -3.35321 0.0125065 103 87 114
-15.2283 0.971354 0.0106037 107 87 115
-15.1592 -3.2772 0.0097968 101 87 113
-15.3615 0.165209 0.00954647 103 89 115
-15.2892 -4.22142 0.00879941 109 102 117
-15.4959 0.301155 0.0109997 100 86 112
-15.4263 -4.09257 0.00973696 103 90 111
-22.786 1.37302 0.0103054 97 78 105
-22.7239 -2.88042 0.00770411 97 77 103
-15.5684 0.498297 0.00991386 100 84 111
-15.4903 -4.35894 0.00976282 94 118 105
-9.49328 6.23297 0.0108982 159 141 178
-9.41986 1.71621 0.010313 112 97 128
-9.35521 -2.53862 0.00669893 107 93 118
-9.2893 -6.05141 0.0102334 107 90 116
-15.7674 3.80697 0.0105915 48 84 64
-15.6955 -0.442935 0.010984 105 89 116
-15.6346 -4.70019 0.00915175 55 145 70
-22.2464 1.58131 0.00917462 114 94 118
-22.181 -2.80924 0.00889201 99 80 101
-5.1025 8.26167 0.00810866 104 85 130
-5.03669 3.86815 0.00943323 111 94 138
-4.90213 -3.89087 0.00880586 106 93 121
-4.8304 -8.27866 0.00706711 113 99 116
-15.9002 2.85637 0.0107949 97 83 111
-15.8349 -1.52703 0.0097883 105 91 117
-15.9029 1.57302 0.00965823 98 84 110
-15.8407 -2.67829 0.00832701 100 85 114
-15.9686 2.92778 0.0105415 98 84 113
-15.9038 -1.45648 0.0100604 103 90 116
-16.0376 2.78863 0.0103979 95 83 111
-15.9663 -1.46436 0.0098974 102 89 115
-16.1692 3.0627 0.0108804 104 90 117
-16.1067 -1.32758 0.010044 102 86 115
-16.3068 3.13201 0.0116447 98 87 113
-16.2382 -1.12205 0.00990072 103 89 115
-7.12776 -6.4555 0.00674992 108 93 114
-7.19435 -1.05746 0.00872931 112 97 126
-7.26498 3.19574 0.00833356 110 93 125
-7.32762 7.44775 0.00859069 104 88 127
-16.4394 -2.0702 0.00938081 103 87 116
-16.5085 2.18043 0.0113187 100 84 113
-16.5067 2.11523 0.00957618 99 82 111
-16.4457 -1.99919 0.00953546 106 92 118
-16.641 1.77626 0.011426 98 82 111
-16.5778 -2.94453 0.01091 101 87 112
-16.7066 1.37395 0.0117908 100 82 111
-16.6421 -2.88025 0.00878915 100 85 109
-17.1199 2.78651 0.00986556 96 82 108
-17.0529 -1.46308 0.0116116 105 86 113
-17.2481 2.99582 0.0115613 92 77 102
-17.1886 -1.25513 0.0104026 105 89 116
-17.2486 -0.108913 0.00891762 103 87 117
-17.1811 -4.36657 0.00954211 80 117 96
-17.2527 -4.29691 0.00994801 88 93 96
-17.316 -0.0396233 0.0104779 102 87 114
-17.6592 3.53594 0.0117214 98 86 109
-17.5939 -0.851572 0.0097547 102 86 113
-17.8535 3.59775 0.0103341 98 90 111
-17.794 -0.648757 0.0101904 104 85 113
-17.9944 3.80848 0.0110745 66 96 83
-17.9313 -1.59238 0.00978813 103 84 112
-18.063 3.94174 0.0126322 62 132 84
-17.9983 -0.439663 0.0106158 104 88 114
-17.928 -3.82136 0.00794636 107 89 115
-14.8242 3.54062 0.0117706 90 86 114
-14.7565 -0.853789 0.0107705 103 88 117
-18.1371 4.00189 0.0109351 61 142 82
-18.0632 -0.383689 0.00966524 102 87 113
-17.9938 -4.77041 0.00862025 61 151 73
-18.3319 4.14103 0.011197 68 142 89
-18.2642 -0.254409 0.0091207 101 83 109
-18.2 -4.42747 0.0100694 67 139 81
-18.4032 3.93587 0.0103492 70 135 91
-18.3351 -0.176722 0.0102617 105 87 113
-18.2673 -4.56644 0.00808241 65 147 77
-3.61574 7.11265 0.0078052 108 90 132
-3.55121 2.85577 0.00984506 109 90 135
-3.48754 -1.66329 0.00870878 117 167 141
-3.41428 -5.9132 0.00932605 112 94 118
-3.34741 -8.88607 0.00848037 115 100 115
-18.8075 0.365461 0.00941968 99 82 110
-18.7387 -3.68566 0.00892058 101 83 108
-22.9906 3.3967 0.00957588 94 76 103
-22.9215 -1.12507 0.00844205 98 74 103
-19.0723 1.7114 0.00989348 103 83 110
-19.0066 -3.28031 0.00852565 100 82 106
-19.1431 1.78381 0.0101794 101 82 110
-19.0741 -2.60653 0.00935349 98 80 108
-19.5517 1.03109 0.00995268 97 81 107
-19.4835 -3.35297 0.00792966 98 81 104
-17.9872 3.46858 0.0109508 102 87 116
-17.924 -1.25857 0.00963489 103 86 113
-19.8794 2.51892 0.010569 98 84 110
-19.5468 -2.39933 0.0090163 98 80 104
-19.8165 -2.06803 0.0089687 97 82 105
-19.6876 2.58775 0.0131767 95 80 109
-19.6155 -1.80006 0.00936074 101 83 107
-20.626 3.19581 0.00965104 94 75 106
-20.5594 -1.19177 0.00903168 95 77 101
-20.689 0.16488 0.0101365 107 87 113
-20.6941 0.0904432 0.0097864 104 85 108
-20.8304 -4.6983 0.00791965 67 143 74
-20.8943 -0.442359 0.00916715 96 78 102
-20.9571 3.60302 0.0101098 90 78 102
7.7236 -1.25521 0.00806069 114 93 132
-21.1006 -0.650219 0.00949246 98 79 103
-21.1623 3.73941 0.00964885 94 85 103
-2.67181 -7.53692 0.00878288 109 96 114
-2.74102 -3.01606 0.0098132 101 167 130
-2.80396 1.24025 0.00923923 93 172 117
-2.8742 6.37107 0.00715404 110 88 137
-21.2366 2.7948 0.010175 92 78 104
-21.168 -1.12557 0.00905461 96 81 104
-21.642 -4.49712 0.00691723 61 134 70
-21.7092 -0.247798 0.00824483 102 83 108
-21.8445 1.50527 0.0097481 98 78 105
-21.7762 -2.88256 0.00799077 98 79 101
-21.9093 1.30434 0.00887429 99 78 106
-21.8429 -2.81729 0.00848271 99 79 102
-22.0449 1.36395 0.0103761 100 81 107
-21.9789 -3.08585 0.00754423 99 79 104
-22.1109 -3.61906 0.0089865 98 80 104
-22.18 0.629803 0.00827561 103 85 109
-22.9866 -1.46396 0.00854826 96 76 101
-23.0564 2.79225 0.00955153 102 80 108
-12.0561 2.85689 0.0115055 103 87 124
-11.9896 -0.376898 0.0107903 109 90 118
-11.9179 -4.62967 0.0093514 74 152 85
-6.72807 7.64776 0.00873427 102 85 127
-6.65566 3.39618 0.00961726 110 89 128
-6.5866 -1.462 0.00840649 110 95 126
-6.51746 -5.71043 0.00751216 110 96 119
-6.45316 -9.96615 0.00731641 119 108 116
-23.8668 1.84669 0.00879767 100 80 107
-23.7982 -2.53991 0.00712966 95 72 101
-23.9367 0.363256 0.00783414 95 76 101
-24.1382 0.295281 0.00884429 101 78 103
-11.1115 4.27497 0.0128666 75 150 102
-11.0444 0.166227 0.0120731 109 91 122
-10.9683 -4.2231 0.00986033 108 94 120
-24.2689 0.361257 0.00810279 98 75 102
-24.3416 -1.72949 0.00855643 99 74 100
-24.4045 2.65437 0.00848133 104 82 104
-25.0176 2.25568 0.00951832 104 80 106
-25.0788 1.50531 0.00865321 103 80 106
-25.9672 4.21219 0.00807059 64 130 69
-25.8894 0.090756 0.00910489 96 75 99
-26.0216 4.07429 0.00819358 54 96 57
-25.9576 -0.179544 0.00775931 0 0 0
-26.099 3.26136 0.00918492 97 74 98
-7.46492 6.43454 0.00919774 106 88 128
-7.39555 1.84871 0.00849561 112 95 129
-7.32869 -2.40604 0.00792012 107 93 119
-7.25982 -6.92935 0.00666341 108 93 114
-26.1653 3.67208 0.00936024 118 93 115
-26.4318 2.85828 0.00875669 96 71 96
4.48349 -1.19268 0.007686 100 97 111
4.61755 -9.69353 0.0108505 118 104 118
-29.132 3.40058 0.0104263 91 66 86
-28.1191 1.98386 0.00703476 0 0 0
-9.76319 3.93979 0.00932315 103 87 124
-9.69388 -0.177702 0.00708958 109 93 122
-9.62544 -4.56507 0.00621454 109 91 117
-28.6609 2.58748 0.0103155 0 0 0
-20.0816 4.07728 0.00936659 67 144 88
-20.0177 -0.174876 0.00959773 96 78 103
-19.9508 -4.43093 0.00899623 64 124 77
-29.4039 3.67091 0.0111833 90 65 86
-29.4685 3.94394 0.00881525 89 64 85
11.4363 -4.70286 0.00648195 108 92 131
-10.0937 -5.03345 0.01015 104 89 112
-10.1672 -0.440876 0.0110468 109 95 123
-10.2337 3.80453 0.0100942 100 87 124
-19.0043 3.81129 0.0105901 71 94 84
-18.9408 -0.444871 0.0112376 99 80 107
-18.8705 -4.70053 0.00892515 59 148 70
8.73814 -1.39234 0.00666126 116 94 136
8.8009 -5.98068 0.00773026 110 97 123
-24.4051 3.86627 0.00960229 86 82 93
-24.3423 -0.516585 0.00883354 97 74 100
-8.33903 -8.81399 0.01486 107 105 103
-8.40888 -4.29759 0.00679194 108 88 116
-8.47934 -0.0436504 0.00755857 113 94 124
-8.54716 4.54633 0.0114657 106 90 129
-13.3366 0.698362 0.0110979 101 86 117
-13.2679 -3.68555 0.010448 120 106 131
-0.378437 6.50408 0.00679005 117 95 141
-0.308413 2.11846 0.00847942 92 177 120
-0.240889 -2.00238 0.00976768 90 179 113
-0.174679 -6.38993 0.00992551 114 95 119
-0.105204 -7.87158 0.00895954 112 99 117
-14.3522 3.26339 0.0108663 96 82 116
-14.2796 -0.996859 0.0118144 103 88 116
7.38605 0.296722 0.00665658 118 97 139
-16.1032 -1.25505 0.00969852 102 86 115
-16.1712 2.99213 0.0109702 100 85 113
-18.4033 1.17481 0.0103379 98 83 110
-18.3291 -3.35087 0.008587 98 83 108
-8.27731 4.88645 0.0098404 106 91 132
-8.207 1.10019 0.00806757 112 95 127
-8.14037 -3.14953 0.00794625 109 95 121
-8.07211 -7.39908 0.00674657 110 94 113
-17.7858 3.60675 0.011304 97 90 108
-17.7224 -0.788288 0.0100048 104 86 112
1.0393 5.89711 0.00680476 118 99 144
1.17532 -2.60558 0.0102109 93 180 115
1.24392 -7.47173 0.0101141 112 96 114
1.31146 -11.7187 0.00932293 132 119 129
2.25497 3.9392 0.00685351 119 98 137
2.32474 -0.520675 0.00854379 93 175 120
2.39088 -4.90302 0.010236 112 97 128
2.4614 -9.29051 0.0105055 116 104 116
2.18466 4.00515 0.00713697 118 97 138
2.25079 -0.382503 0.00817677 92 175 121
2.39073 -9.22097 0.0109159 116 104 116
-12.3935 0.903492 0.0102225 108 93 124
-12.3322 -3.48359 0.010189 106 92 118
2.11748 4.27619 0.00793741 119 97 143
2.18638 0.0197693 0.00913986 91 177 116
2.25435 -4.22597 0.0103038 110 106 123
2.32736 -8.55 0.0111711 115 101 117
-26.7726 1.71186 0.00792921 105 75 100
-12.3873 3.13078 0.0107827 99 83 120
-12.3267 -1.12383 0.0121842 108 92 122
2.25493 -6.78797 0.00964718 116 98 120
2.18864 -2.54211 0.00958069 91 176 117
2.11785 1.98055 0.00735795 102 170 128
-1.86264 5.28775 0.00739521 114 92 139
-1.79364 0.900592 0.00868372 97 182 117
-1.66018 -6.86345 0.0098184 111 97 120
-1.59231 -11.2468 0.00931201 127 115 125
-20.4273 -1.05747 0.0083587 96 78 102
-20.4918 3.33724 0.0106891 92 75 107
1.92027 4.27601 0.00772027 119 97 143
2.05113 -2.39851 0.00916337 88 171 110
2.12024 -6.66063 0.00998444 113 98 121
2.1856 -11.1819 0.0085989 125 113 122
-16.5083 -0.0472753 0.0100767 102 86 113
-16.4474 -4.15983 0.0107556 103 91 112
1.98437 4.68393 0.00673149 121 100 143
2.0551 -7.06287 0.00971551 115 98 117
-26.1621 1.91221 0.00910906 103 76 102
1.85039 4.27984 0.00708606 119 98 141
1.9184 0.161597 0.00900295 93 176 119
1.98788 -4.22359 0.0105033 104 109 119
-24.6776 -1.93348 0.00741603 0 0 0
-24.7537 2.6527 0.010525 107 83 107
-3.68662 8.05676 0.0078468 109 90 135
-3.61953 3.73619 0.00809282 106 89 133
-3.54784 -0.520106 0.00991473 108 168 125
-3.48385 -4.76795 0.0100247 112 96 122
-3.41339 -9.02534 0.00815135 117 100 116
1.71493 0.495431 0.00905574 94 175 117
1.78483 -4.35673 0.00984048 117 115 131
1.85107 -8.61604 0.00997812 116 104 118
1.71589 4.88494 0.00713122 119 99 141
1.78156 0.969169 0.00858164 92 172 119
1.85121 -3.41609 0.00887706 94 174 115
1.91875 -7.80991 0.0103939 113 96 115
1.71302 -8.07282 0.00958517 113 98 117
-22.8562 0.22333 0.0104768 106 86 110
-4.96229 10.021 0.0104008 108 91 135
-4.90052 5.76211 0.00851811 105 88 132
-4.83409 1.50839 0.00995207 110 94 133
-4.76692 -2.74112 0.00962576 106 91 122
-4.69762 -7.6036 0.00819149 108 95 115
1.57939 5.08548 0.00685709 119 96 139
1.71342 -3.68865 0.0112097 95 169 117
1.37824 5.0879 0.00659638 118 97 136
1.44389 0.831843 0.00886556 95 178 122
1.57631 -8.28014 0.00853744 115 100 119
1.5109 0.836469 0.00816507 94 176 120
1.51395 0.223609 0.00856858 91 172 114
1.58051 -4.16069 0.00897733 99 136 119
1.64948 -8.54764 0.0103572 114 101 118
-8.33486 -9.4289 0.0115001 90 179 82
-8.41212 -5.30683 0.00673172 107 89 115
-8.47928 -0.920132 0.00746017 112 93 125
-8.54382 3.259 0.0102629 109 93 130
-8.61016 7.6525 0.00983386 172 181 189
1.31082 5.29091 0.00692205 118 97 138
1.37795 1.03929 0.00821352 93 178 121
1.44552 -3.2112 0.00996753 91 176 111
1.51421 -8.6163 0.00942759 114 102 116
1.51486 -8.41097 0.00905437 116 102 119
1.37635 0.965186 0.00849067 91 179 121
1.10913 5.086 0.00710827 117 96 137
1.17594 0.699757 0.00856866 94 179 122
1.24568 -3.21352 0.00982918 90 175 110
1.04292 -11.4446 0.00932036 129 117 127
0.970724 -7.06284 0.0101154 112 97 116
0.906414 -1.25651 0.00906503 89 177 113
0.839985 3.12802 0.00789233 98 163 123
0.76918 2.92723 0.00771062 96 170 124
0.905907 -5.58066 0.00971122 111 97 122
0.97269 -11.3775 0.00906072 128 116 126
0.701707 1.64378 0.00838664 93 178 123
0.770804 -2.74131 0.0105287 88 175 108
0.905275 -11.2456 0.00928981 126 116 127
-8.94557 -7.93246 0.00880864 110 98 108
-9.01774 -3.68733 0.00668008 106 92 118
-9.08552 0.902184 0.00748248 109 94 125
-9.15686 5.15995 0.0121784 96 84 124
0.568791 5.89758 0.00678188 119 98 141
0.634637 1.50385 0.00879801 92 180 122
0.705386 -2.67322 0.00968149 88 177 113
0.769061 -7.06226 0.00889958 114 96 119
0.835854 -11.1821 0.00903304 126 116 127
0.297456 6.16873 0.00655111 118 96 142
0.363305 1.90891 0.00852205 93 178 121
0.43271 -2.40531 0.0100357 90 179 111
0.566653 -10.9154 0.00921861 122 110 123
0.301205 1.50572 0.00866723 93 178 120
0.364401 -2.87747 0.0113115 90 178 112
0.430715 -6.24906 0.00910928 111 97 121
0.501979 -10.6414 0.00863738 121 109 121
0.0281163 6.16826 0.00656786 118 96 142
0.0938471 1.77499 0.00884237 88 173 116
0.227502 -7.06043 0.0103259 114 97 115
0.296975 -11.4459 0.008309 127 115 125
0.165762 -5.30494 0.0103313 111 96 125
0.0276908 3.26635 0.00825985 89 156 123
0.0928332 -0.98975 0.00885853 95 182 114
0.0235074 -1.46361 0.009299 90 179 114
0.0945816 -5.71492 0.00892405 111 96 124
0.163057 -10.2979 0.00856385 121 108 121
-0.110438 2.92942 0.00789167 90 177 122
-0.03825 -1.46571 0.00909147 89 178 114
0.0263597 -5.57754 0.00918322 112 98 124
0.0936578 -9.96616 0.00969235 122 109 119
-0.105241 2.85885 0.00929289 92 177 122
-0.0421149 -1.39285 0.00924423 88 174 111
0.0961399 -9.8969 0.00912104 119 107 118
-25.5581 3.19125 0.00844024 98 74 101
-0.175799 4.41042 0.00807543 110 91 137
-0.109239 -1.38843 0.00934027 91 177 114
-0.0393053 -5.77783 0.00919621 110 96 122
0.0293708 -9.89932 0.00863523 120 108 119
-17.7247 1.23323 0.0128746 102 83 111
-17.6601 -2.94591 0.00899489 97 83 109
-0.241858 4.55032 0.00821929 111 92 138
-0.17613 0.29906 0.00912245 95 176 114
-0.108283 -5.91302 0.00847595 111 97 122
-0.0391439 -10.1676 0.00818097 124 108 121
-0.241649 4.74874 0.00797197 112 95 140
-0.176501 0.365241 0.0085894 97 175 113
-0.105122 -5.98363 0.00945473 110 96 121
-0.0373505 -10.3685 0.00962082 121 109 121
-0.307628 4.55069 0.00738658 110 91 137
-0.240084 0.432237 0.00923482 97 177 118
-0.175575 -3.95831 0.00967776 94 171 113
-0.108529 -10.2982 0.0091897 121 108 120
-16.4448 -3.55342 0.00866561 102 87 112
-16.5131 0.968005 0.0107708 100 84 112
-0.244164 -4.15866 0.00896439 111 156 138
-0.178055 -8.54828 0.00885117 118 104 121
-0.310265 -0.043305 0.00932396 89 178 114
-0.445639 4.7472 0.00810661 111 92 138
-0.378542 0.0192535 0.00844592 92 179 115
-0.310892 -4.36522 0.0104858 186 190 219
-0.243162 -8.48413 0.0107531 118 105 122
-0.312043 -8.95479 0.00881246 117 105 119
-0.376522 -4.56951 0.00892898 101 90 124
-0.512171 4.00497 0.00818954 112 90 136
-0.444903 -4.63252 0.0100241 111 96 131
-0.511908 -0.382158 0.0087713 93 178 111
-0.581325 3.87092 0.00820708 110 93 133
-0.645486 3.93929 0.0078073 112 90 136
-0.444366 -9.08655 0.00801304 117 105 119
-0.713724 4.68095 0.00768726 112 90 139
-0.647356 -0.307418 0.0100954 93 178 111
-0.580738 -4.70105 0.00924472 111 96 129
-0.511114 -9.0915 0.00938006 117 104 121
-0.781114 7.24524 0.00711558 123 102 145
-0.715382 2.9936 0.0083397 87 162 119
-0.646441 -0.786302 0.00910135 90 179 113
-0.580109 -5.03748 0.00916895 108 93 122
-0.512329 -9.28525 0.00919465 116 103 121
-10.5093 4.20622 0.0103018 98 85 115
-10.4358 -0.179751 0.0108689 112 93 121
-10.3696 -3.55366 0.0108683 108 90 116
-0.780954 3.13092 0.00839056 89 160 118
-0.641843 -5.1746 0.00960653 110 96 122
-0.580165 -9.55783 0.00810341 120 105 116
-0.784777 -1.18818 0.00879834 92 179 111
-0.714364 -5.57681 0.00961534 110 96 122
-0.647031 -9.49797 0.00950975 119 106 116
-1.05091 7.24557 0.0069475 117 99 141
-0.981365 2.86032 0.00910802 88 165 119
-0.916978 -1.05922 0.00875168 88 177 111
-0.783177 -9.82932 0.008303 119 106 117
-7.05966 8.52559 0.0090034 108 92 131
-6.99363 4.14268 0.00849444 108 91 133
-6.92556 -0.244292 0.00823871 109 94 122
-6.85794 -4.70381 0.00809459 108 94 119
-6.79242 -9.08913 0.00618901 115 99 112
-23.1309 0.295138 0.00922682 99 79 104
-23.0561 -3.62028 0.00778253 95 75 100
-16.6495 3.86697 0.0115598 69 126 95
-16.5812 -0.724271 0.0100991 106 87 115
-1.25351 5.42435 0.00754025 117 93 141
-1.18957 0.298317 0.00915725 89 173 113
-1.11941 -3.9574 0.00925879 99 168 118
-1.32206 5.28929 0.00779216 115 93 140
-1.25461 0.90153 0.00928408 94 179 112
-1.18721 -3.82375 0.00891673 94 172 114
-1.12086 -8.21335 0.00900207 114 102 120
-13.6094 1.58248 0.00976319 99 84 115
-13.5388 -2.81428 0.00969725 107 90 119
-1.39054 5.08926 0.00734905 115 93 142
-1.32419 0.971154 0.00877928 94 179 112
-1.25374 -3.42192 0.00924023 88 177 107
-1.1854 -8.14414 0.00838191 113 100 118
-1.45741 5.96473 0.00764443 112 95 139
-1.3225 -2.53998 0.00963046 89 181 108
-1.52345 5.82842 0.00764435 111 94 138
-1.45594 1.63696 0.00913435 96 176 117
-1.38933 -2.74159 0.00933884 90 182 110
-1.31924 -6.8627 0.00872931 110 96 119
-1.25317 -11.2415 0.00787865 126 114 124
-28.0538 2.85306 0.00954097 97 69 91
-24.0664 2.85661 0.00973922 101 80 107
-24.001 -1.66758 0.00832427 99 77 105
-1.79735 6.23416 0.00700659 115 92 136
-1.72419 0.833484 0.00905078 93 178 113
-1.66152 -3.41981 0.0105492 97 179 113
-1.59186 -7.66923 0.00840103 110 97 115
-1.86419 5.82933 0.00837446 110 93 137
-1.79573 1.44157 0.00873131 93 171 113
-1.72919 -3.01517 0.01007 97 186 118
-1.65796 -7.40163 0.00857408 115 97 121
-26.1604 0.965394 0.00894076 96 72 96
-7.26238 -9.6271 0.00586976 116 106 110
-7.33077 -5.10422 0.00728548 105 92 112
-7.3947 -0.852108 0.00835873 112 97 128
-7.46358 3.73945 0.00855055 110 94 132
-7.52952 7.99135 0.00904498 103 87 127
-1.92634 1.50733 0.00900195 91 169 109
-1.99534 5.7612 0.0078025 110 93 137
-1.86285 -2.73984 0.00963092 89 177 108
-1.7938 -6.9957 0.00860673 111 96 117
-2.13298 4.34223 0.0092415 109 92 134
-2.06162 0.0917614 0.0101243 86 171 106
-1.99684 -4.22423 0.0103388 110 101 125
-1.9297 -8.47939 0.00918844 115 102 120
11.0307 -5.04006 0.00727771 110 95 126
-2.40345 6.57417 0.00784876 116 94 140
-2.26664 6.09783 0.00891574 114 91 137
-2.33402 2.32029 0.0100274 98 163 129
-2.19934 1.84575 0.00821217 95 171 117
-2.13315 -2.40382 0.0098874 96 186 117
-2.06518 -6.65895 0.00948477 109 95 120
-1.99647 -11.5134 0.00762945 129 113 124
-2.33703 6.50381 0.0074741 114 95 140
-2.26954 1.91571 0.00919268 97 169 120
-2.19794 -2.34165 0.00918573 96 186 116
-2.13116 -6.86467 0.00947803 111 96 117
-2.0642 -11.1157 0.00767619 126 114 125
-25.0183 2.17864 0.00882986 106 81 107
-2.26617 -11.1128 0.00853023 125 113 124
-2.40127 -10.6403 0.00936343 123 109 122
-2.47061 -6.52019 0.00907972 110 95 116
-2.67257 6.97541 0.00717872 112 93 138
-2.60463 6.91257 0.00747838 113 94 139
-2.53665 2.18312 0.00899083 104 169 139
-2.4712 -2.19956 0.00918541 92 179 114
-2.40128 -6.32242 0.00851285 108 95 115
-2.33334 -10.7074 0.00771304 124 110 123
-2.5371 4.68085 0.0097706 110 92 135
-2.46984 0.432905 0.00904037 94 178 113
-2.33911 -8.33992 0.00922164 114 103 120
-2.40404 -4.09539 0.00998102 112 99 120
-21.2347 -3.01662 0.00929603 96 77 100
-21.3016 1.36761 0.0119882 98 78 103
-2.53691 7.38227 0.00800028 113 91 137
-2.47052 3.1276 0.00852191 108 91 135
-2.40276 -1.39536 0.00924906 92 177 110
-2.33592 -5.6492 0.00919089 108 94 119
-14.6151 0.83729 0.0105342 104 85 113
-14.5516 -3.28342 0.00976711 107 90 116
-3.01031 6.91115 0.00878277 112 93 139
-2.94502 2.65629 0.00888056 106 95 129
-2.87566 -1.5944 0.00921717 93 177 117
-2.80519 -5.9125 0.00815539 108 96 118
-2.73943 -10.1684 0.00797739 122 108 118
-25.1512 1.77692 0.0100637 100 76 102
-2.53812 -10.3694 0.00828865 121 107 119
-2.60507 -6.45675 0.00801407 109 95 115
-2.74403 2.3185 0.00893612 105 104 120
-2.80765 6.70603 0.00795052 110 94 138
-3.14731 7.17787 0.00722756 110 92 134
-3.07638 3.26007 0.00984122 107 89 131
-3.01024 -1.125 0.00928129 96 177 116
-2.94285 -5.50851 0.00855029 109 93 120
-2.87507 -9.89996 0.00800451 121 107 117
-21.0343 3.67954 0.0110424 92 79 99
-20.964 -0.584107 0.0105706 95 77 101
-3.14332 -7.20196 0.00913109 115 98 116
-3.2086 -2.94717 0.0101098 95 109 107
-3.28366 1.30816 0.00874103 76 115 97
-23.2689 4.0029 0.00955146 50 101 64
-23.1945 -0.514994 0.0101654 100 79 104
-3.4848 5.28683 0.00762257 109 90 135
-3.41442 0.902035 0.00954239 112 152 133
-3.34478 -2.74076 0.00979391 92 104 106
-3.28283 -7.12902 0.00840556 115 98 117
-3.21267 -11.2454 0.00725932 125 112 121
-3.48159 0.974013 0.00999714 75 105 95
-3.41079 -3.41704 0.0103126 105 95 120
-3.3463 -7.06323 0.00884796 113 97 116
-3.27895 -11.449 0.00801162 127 112 124
-3.61703 8.1243 0.00853361 110 91 136
-3.54852 3.73983 0.00843102 107 90 134
-3.48267 -0.381927 0.0086843 99 166 122
-3.34983 -10.0374 0.00759102 118 106 118
-3.68273 7.98868 0.00776682 109 90 135
-3.6148 3.80384 0.00849485 106 89 132
-3.55096 -0.582022 0.00859264 107 169 128
-3.48441 -4.70157 0.00980062 112 96 122
-3.41579 -9.08808 0.00801691 117 100 116
-4.02223 8.32788 0.00778473 110 88 134
-3.95302 4.0702 0.00798972 107 90 134
-3.8854 -0.23954 0.00850041 96 111 114
-3.81801 -4.50038 0.00868612 112 93 121
-3.75041 -8.74955 0.00739492 114 100 116
-4.08878 8.05725 0.00743101 108 89 134
-4.01914 3.67108 0.00877978 109 90 135
-3.8882 -4.09216 0.0106769 109 95 120
-3.81974 -8.48009 0.00803315 114 99 118
-19.6177 0.56407 0.00971286 98 80 106
-4.15561 7.92617 0.00879897 112 90 137
-4.09266 3.67159 0.00917789 111 90 136
-4.0217 -0.58018 0.00866733 100 105 112
-3.95528 -4.83772 0.00779023 110 95 118
-3.88627 -8.61255 0.00806628 113 100 117
-4.15721 8.12273 0.00773167 107 88 134
-4.08819 3.73798 0.00837609 111 89 135
-4.01909 -0.648845 0.00896744 101 105 114
-3.95856 -5.03653 0.00792428 111 97 122
-3.88507 -8.41282 0.00847172 116 99 118
-4.15971 3.73702 0.00843566 109 90 135
-4.08959 -0.518571 0.00907107 98 101 113
-4.0241 -5.03518 0.00915441 111 97 122
-3.95567 -9.29372 0.00822894 121 104 120
-4.22446 8.26221 0.00793699 109 89 134
-4.09078 -0.583973 0.00931456 100 102 114
-4.02016 -4.97203 0.00919566 111 95 121
-3.95574 -9.35915 0.0093191 121 104 120
-4.29109 7.5878 0.0086506 105 88 130
-4.22738 3.33244 0.00865364 108 91 135
-4.15658 -0.988337 0.009146 102 99 114
-4.09071 -5.2437 0.00786952 109 95 120
-4.02154 -9.49425 0.00889222 120 104 117
-4.62808 6.43666 0.00811962 108 89 134
-4.56182 2.31907 0.00909134 109 91 131
-4.49433 -2.06656 0.00908089 107 92 121
-4.42673 -10.0358 0.00724636 124 108 118
-4.69646 6.503 0.00821874 108 91 133
-4.6292 2.11757 0.00952457 108 92 131
-4.5614 -2.00134 0.00837078 107 93 119
-4.49568 -6.38972 0.00873762 110 95 118
-20.6959 2.2553 0.0101438 98 79 109
-20.6265 -4.09328 0.00842873 96 80 104
-5.23239 9.74714 0.012917 104 87 132
-5.16922 5.35334 0.00893265 112 91 134
-5.10384 0.971341 0.008787 110 91 127
-5.03413 -3.41856 0.00875037 107 93 119
-4.96806 -7.32823 0.00814249 108 95 115
-5.30333 9.33917 0.00792692 103 86 131
-5.23669 5.41859 0.008572 111 91 134
-5.16687 1.03722 0.00823835 112 91 126
-5.10126 -3.35162 0.00852194 106 92 118
-5.03491 -7.73898 0.00781556 112 98 115
-5.37556 9.20364 0.00920844 104 86 134
-5.30425 4.9544 0.00867598 108 90 132
-5.23271 0.0870889 0.00910272 109 92 124
-5.17025 -4.15906 0.00791324 110 96 122
-5.10361 -8.41227 0.00722123 112 101 115
-5.64219 7.44985 0.00855427 106 89 131
-5.5742 3.05945 0.00912251 112 96 135
-5.51199 0.497491 0.00845716 111 96 130
-5.44307 -3.88976 0.00869311 107 94 122
-5.37239 -8.0071 0.00695267 110 97 114
-5.71151 7.31533 0.008429 106 91 130
-5.64308 3.06326 0.00861323 113 95 137
-5.57564 -1.19118 0.00831926 111 90 126
-5.51174 -3.8911 0.00884161 106 93 121
-5.43899 -8.1442 0.00806835 113 99 116
-5.84292 7.98833 0.00865636 103 86 129
-5.778 3.80459 0.00784288 111 95 134
-5.71205 -0.582296 0.00853683 110 93 126
-5.64202 -4.70273 0.00879086 111 94 120
