ply
format ascii 1.0
comment Created by Open3D
element vertex 1262
property double x
property double y
property double z
property uchar red
property uchar green
property uchar blue
end_header
27.972 -0.919703 0.00741258 101 70 133
27.906 2.85575 0.0100716 95 64 124
27.9047 2.65865 0.00893665 97 66 126
27.9726 -0.719935 0.00747078 101 69 134
28.1079 -2.00092 0.0060073 100 70 132
28.0441 2.52118 0.00848308 98 66 129
28.0417 2.31722 0.0100256 98 67 131
28.1081 -1.79961 0.0074305 101 69 134
28.11 2.52198 0.00664445 97 65 129
28.1738 -1.86668 0.00749849 101 69 134
28.2401 -1.99902 0.00613285 101 71 133
28.1754 2.17958 0.00789337 99 67 132
28.2422 -1.8655 0.00671775 101 69 133
28.1715 2.04703 0.00900087 98 67 129
28.2421 2.38576 0.00658809 98 66 131
28.3075 -1.86674 0.00735926 101 69 134
28.3114 -1.93516 0.00709034 99 69 131
28.2457 2.44797 0.00845702 98 66 131
28.2442 1.43965 0.00704106 100 68 132
28.3078 -2.81008 0.00722484 99 68 128
28.444 -2.40268 0.00679327 96 68 129
28.374 1.84258 0.00863252 100 68 133
28.3745 1.90878 0.00818127 100 68 133
28.44 -2.47619 0.00821452 96 67 130
28.4395 1.57471 0.00780827 101 69 134
28.5173 -3.14861 0.00633232 100 70 132
28.5122 -3.21596 0.00626319 99 69 131
28.4415 1.63888 0.00864943 100 68 133
28.5798 -3.01327 0.00618355 103 71 134
28.5152 1.23578 0.00828384 99 68 132
28.5159 1.30856 0.00801589 99 68 132
28.5776 -3.0817 0.00623838 102 70 133
28.6498 -2.81116 0.00658931 108 77 141
28.5776 1.44267 0.0078008 100 68 133
28.6486 -3.14877 0.00769257 102 70 133
28.5814 1.23864 0.00711858 99 68 131
28.7141 -3.01525 0.00692709 104 72 135
28.6489 1.23745 0.00856381 100 68 133
28.7147 -3.08136 0.00668347 103 71 134
28.6472 1.30852 0.0088154 100 68 133
28.7835 -3.41777 0.00612788 102 71 131
28.7121 1.17016 0.0077095 98 66 133
28.7172 0.968215 0.00789271 99 67 131
28.783 -3.21558 0.00639966 100 70 132
28.7807 -3.28386 0.00741641 99 69 129
28.7134 1.03509 0.00953249 99 67 133
28.8498 -3.0818 0.00606805 102 71 135
28.7799 1.17418 0.00810314 98 66 132
28.8508 -3.14933 0.00613621 101 70 134
28.7809 1.2381 0.00768373 99 67 132
28.9163 -3.41926 0.00616715 103 72 133
28.8518 0.835889 0.00869149 100 68 132
28.9856 -3.61996 0.00636349 100 70 130
28.9162 0.632948 0.0077454 99 69 133
28.9856 0.361026 0.00832379 101 69 133
28.9886 0.433133 0.00818648 100 68 131
29.189 -3.95841 0.00537376 100 75 133
29.1201 0.159783 0.00736292 101 70 137
29.1881 -4.02387 0.00571153 95 78 130
29.1207 0.225303 0.00825833 102 71 138
29.2542 -4.22644 0.00634025 106 139 147
29.1909 0.0263434 0.00764497 100 69 136
29.3221 -0.110263 0.00752563 100 69 136
29.2572 4.07106 0.00957855 82 136 105
29.3881 -0.446124 0.00772069 98 67 134
29.3213 3.93816 0.0095493 85 133 114
29.3892 -0.381442 0.00779962 99 68 135
29.3232 3.86647 0.00989899 79 109 108
29.5929 -1.32583 0.00742016 99 70 134
29.5258 3.53602 0.00915476 101 75 134
29.5934 -1.2544 0.00731756 99 69 133
29.5255 3.46864 0.00766682 100 71 132
29.5947 -1.18889 0.00703776 100 68 133
29.5255 3.40056 0.00954434 100 71 132
29.6617 -1.05688 0.00605918 101 69 136
29.5897 3.33353 0.00943764 97 69 130
29.6588 -0.989372 0.00650569 101 69 136
29.5908 3.26376 0.00964253 96 68 128
29.8635 -1.38994 0.00697355 97 67 135
29.7922 2.92936 0.00882384 97 65 130
29.8623 -1.3272 0.00710831 97 67 134
29.7947 2.85594 0.00786532 96 64 129
29.8616 -1.25887 0.00636805 98 67 134
29.7965 2.79341 0.00833658 96 64 129
29.9302 -1.66738 0.00655005 100 69 136
29.8665 2.72261 0.009728 97 65 130
30.0652 2.31639 0.00896407 97 65 130
30.0653 2.25034 0.00832268 97 65 130
30.0669 2.99141 0.00857128 97 65 132
30.1976 -2.0678 0.00719739 100 69 137
30.1295 2.18105 0.00888689 99 67 132
30.0661 3.05932 0.00809287 97 65 132
30.1982 -2.26993 0.0062636 100 68 135
30.1356 2.11748 0.00815251 100 68 133
30.2676 -2.06813 0.00626611 100 69 137
30.196 2.04508 0.00958794 100 68 133
30.2703 -2.53952 0.0058451 96 67 133
30.1996 1.98103 0.00822658 100 68 133
30.336 -2.33899 0.00729212 100 68 135
30.2677 1.91195 0.00872801 99 67 131
30.4016 -2.60713 0.00652144 99 70 136
30.3351 1.71045 0.00935809 102 69 136
30.4707 -2.87972 0.0056131 99 68 134
30.4027 1.50777 0.00802821 99 67 131
30.5379 -2.67537 0.00518924 100 71 135
30.472 1.44382 0.00785234 99 68 129
30.6044 -3.01434 0.00617476 97 70 135
30.5364 1.3702 0.00736906 99 67 130
30.605 -2.9448 0.00670927 96 68 134
30.5369 1.30609 0.00652815 98 66 131
30.6725 -3.75596 0.0052901 100 71 134
30.6057 1.10316 0.00798685 97 65 130
30.8099 -3.35145 0.00577078 100 70 133
30.7361 0.90162 0.00731706 99 64 132
30.8085 -3.28264 0.00635009 99 70 134
30.7404 0.833882 0.00808974 98 66 133
30.8757 -3.62129 0.00483719 101 72 133
30.8074 0.769366 0.00824208 99 67 134
30.8734 -3.5541 0.00602361 101 71 131
30.8098 0.698894 0.00837083 100 68 135
30.8756 -3.75639 0.00558122 99 70 134
30.8109 0.633008 0.00711031 99 67 134
30.9435 -3.82246 0.00642194 99 70 134
30.8752 0.499665 0.00670292 99 67 134
31.0771 -3.9581 0.00638185 100 75 134
31.0102 0.296023 0.00723754 99 68 136
31.0764 -3.89143 0.00612 99 72 132
31.0114 0.225317 0.00801531 98 67 135
31.1447 -4.2276 0.00562459 128 155 174
31.0745 0.159549 0.00837149 99 68 136
31.1468 -0.0431361 0.0077722 99 67 134
31.144 2.5881 0.00700765 98 66 131
31.2811 -4.36263 0.00630914 82 141 127
31.214 -0.112076 0.00702911 99 67 134
31.2146 4.00822 0.00943483 83 132 112
31.2809 -0.381139 0.00664401 98 67 135
31.2799 3.67412 0.00747325 90 75 124
31.3495 -0.445577 0.00759488 99 68 136
31.4151 -0.65038 0.0069332 99 68 136
31.3454 3.73677 0.00808604 82 80 117
31.4817 3.46892 0.00626268 99 69 132
31.5513 -0.78654 0.00689252 101 70 138
31.4822 3.33188 0.009362 100 67 134
31.5509 -0.91973 0.007206 101 70 138
31.5485 3.06095 0.00636088 95 65 127
31.6186 -1.05478 0.0064534 99 68 137
31.8863 2.44899 0.0067956 96 64 131
31.955 -1.79872 0.00609164 99 68 136
32.1587 1.84546 0.00590035 100 65 133
32.2274 -2.4085 0.00561549 100 68 135
32.293 1.71174 0.00563131 101 66 134
32.0902 -1.79891 0.00581413 99 68 136
32.0219 2.58581 0.00677622 95 63 130
32.3611 -2.67374 0.00603455 100 68 135
32.4954 1.10263 0.00708314 98 66 133
32.5623 -3.07951 0.00676828 99 68 136
32.6989 0.768572 0.00568345 98 67 134
32.7638 -3.48663 0.00619893 100 69 136
32.8996 -3.68816 0.00682642 102 73 135
32.8316 0.565519 0.00767217 100 69 136
32.8993 0.496757 0.00658922 100 69 136
32.9688 -4.02355 0.00680334 89 76 128
32.9667 0.159202 0.00668346 100 68 136
33.0378 -4.09352 0.00746634 114 117 158
33.1685 -0.177177 0.00627224 101 68 136
33.1695 3.80286 0.0060366 79 84 111
33.2404 -0.445859 0.00623344 101 68 139
33.3061 1.982 0.00619038 96 65 132
33.3745 -0.581146 0.00678645 101 68 137
33.643 2.7913 0.00567892 97 65 130
33.7087 -1.45848 0.00560701 103 67 138
33.7102 2.92761 0.00570391 95 63 129
33.7769 -1.46113 0.00583178 103 67 139
34.0482 -2.06744 0.00588735 101 68 137
33.9812 2.31767 0.00645353 102 67 135
34.3169 -2.67601 0.0059511 101 68 137
34.2461 1.71063 0.0061976 99 67 136
34.5191 1.17259 0.00572309 103 68 136
34.5886 -3.35135 0.00719084 101 69 134
34.656 -2.94673 0.00645555 101 69 136
34.6561 -2.8787 0.00683808 101 69 136
34.5857 1.37482 0.0066277 99 64 132
34.8586 1.30795 0.00604572 103 67 137
34.9264 -2.94551 0.00607389 102 70 137
35.198 -4.16164 0.006883 173 179 212
35.1262 0.227515 0.0113732 103 66 139
35.2618 3.46682 0.00627928 95 68 128
35.3966 1.30422 0.00867241 100 66 139
35.4671 -2.94332 0.00649882 101 69 134
35.6691 -0.988538 0.00529614 104 68 140
35.6088 3.13505 0.0126557 97 65 132
35.8034 -1.59516 0.00607386 109 71 144
35.808 2.25184 0.0178114 101 65 137
36.3428 -3.01139 0.00695609 103 71 138
36.4757 1.10313 0.00820223 99 65 139
36.6152 0.903872 0.00850509 105 69 141
36.5463 -3.2833 0.00769247 104 72 137
38.9756 0.159288 0.00572048 105 69 143
39.0462 -4.29681 0.00834332 93 132 129
39.7913 4.19993 0.0222934 99 146 128
39.9878 2.18361 0.00525769 102 65 139
40.0545 -2.06721 0.00642193 107 73 148
18.0551 -1.72156 0.00917095 1 1 2
17.987 2.52297 0.00990252 93 63 115
17.7153 1.50642 0.012013 88 61 114
17.7221 1.43487 0.0106038 89 62 115
25.2058 -3.21582 0.00671563 97 71 125
25.1393 1.0352 0.00854855 96 66 126
25.1421 0.905027 0.00912056 95 65 125
25.2064 -3.35227 0.00686784 97 72 127
25.2017 0.768098 0.0070347 98 68 128
25.273 -2.87594 0.00914402 99 71 130
25.2743 -2.94774 0.00793533 100 70 130
25.2061 0.835238 0.00831186 98 68 128
25.2733 -0.380048 0.00911959 98 70 128
25.2783 -0.516783 0.00815687 97 69 128
25.3395 -0.312877 0.00779853 96 68 126
25.2739 3.94047 0.0110635 83 131 108
25.4052 -0.112016 0.00777939 97 67 127
25.4758 -4.36204 0.00626184 66 130 101
25.3457 4.07734 0.00826284 72 131 97
25.4068 -0.0412307 0.00873853 98 68 128
25.475 -4.42742 0.00701263 63 127 96
25.4064 -0.244198 0.0084097 95 67 125
25.547 -3.95937 0.00679186 95 76 129
25.4729 0.0899115 0.00820603 99 69 129
25.5437 -4.09228 0.0067111 101 103 135
25.4718 0.223995 0.00893039 99 69 129
25.6091 -4.09371 0.00707859 106 111 141
25.547 0.301679 0.00945818 98 68 128
25.5467 -0.446016 0.00857355 98 68 128
25.471 4.06951 0.00737464 72 130 101
25.5492 -0.378748 0.0078629 97 69 127
25.5496 3.94058 0.0113694 75 128 105
25.6119 -0.441459 0.00817556 98 68 128
25.5462 3.8658 0.0100454 81 128 113
25.6166 -0.379664 0.00810558 97 69 128
25.6105 3.86778 0.00969952 77 129 108
25.685 -0.515857 0.00987761 97 67 127
33.3713 1.10331 0.00749952 100 68 135
33.4407 -3.14773 0.00535425 103 68 132
25.6132 4.07665 0.0097108 73 132 103
25.7452 -4.43074 0.00606656 59 122 88
25.6805 -0.178665 0.0096131 95 67 125
25.683 -0.112691 0.00903128 95 66 125
25.6027 4.00528 0.0113698 81 137 110
25.7482 -0.516159 0.00797323 97 67 127
25.8143 -0.784605 0.00816113 99 69 129
25.6842 3.74037 0.00985712 68 76 102
25.7394 3.53228 0.00816799 92 68 121
25.814 -0.64855 0.0075748 99 69 129
25.8137 -0.443279 0.00933749 98 68 128
25.8814 -0.518753 0.00879956 98 68 128
25.8138 3.86559 0.00976663 82 129 110
33.3735 -0.447292 0.00638006 101 68 139
33.3052 1.84574 0.00613005 98 66 133
25.879 -0.314784 0.00919957 98 69 129
25.8128 3.94301 0.0104661 81 132 108
25.9496 3.19489 0.00840733 95 64 124
26.0111 -1.1901 0.00910609 98 70 128
26.0121 -1.05413 0.00745459 99 71 130
25.9509 3.32843 0.0100231 94 64 123
26.0105 2.93124 0.00893391 99 69 129
26.0809 -1.66487 0.00826887 94 69 127
26.1454 -1.72883 0.00823714 96 71 129
26.086 2.52597 0.00898795 95 63 126
26.1466 -1.65995 0.00742386 96 70 128
26.0829 2.72296 0.00904834 95 66 124
26.1434 2.6594 0.00824305 101 70 130
26.2207 -1.72716 0.00780919 97 71 129
26.2178 -1.38986 0.00810737 99 70 130
26.1431 2.85361 0.0106439 99 70 128
26.2862 -1.79613 0.0081058 98 70 129
26.2226 2.58044 0.0090869 95 64 125
26.2857 -1.66517 0.0074635 97 69 128
26.2191 2.72278 0.0106492 96 67 126
26.3541 -1.05819 0.00809008 99 71 131
26.2876 2.72432 0.00903605 97 67 126
26.2863 2.6591 0.00819953 96 65 125
26.3564 -0.986589 0.00795155 99 71 131
26.3572 1.44336 0.00858869 96 66 125
26.4191 -2.94418 0.00668328 97 69 127
26.3592 1.37502 0.00889099 96 66 125
26.4217 -2.87638 0.0072459 97 69 127
26.4159 -2.81085 0.00763757 98 70 129
26.3546 1.57895 0.00945021 96 66 126
26.4872 -2.88017 0.00670564 95 69 127
26.42 1.50732 0.0075284 97 66 126
26.4216 1.71146 0.00946904 94 64 124
26.4891 -2.53833 0.00740332 95 71 129
26.4936 2.31605 0.0102171 96 66 128
26.5545 -1.93398 0.00789844 96 71 129
26.5561 -2.40482 0.00769832 96 71 129
26.4916 1.98446 0.00927728 98 68 128
33.6435 0.295021 0.00649318 103 67 140
33.7106 -4.09247 0.00621172 101 100 139
26.4907 1.91042 0.00896833 98 68 128
26.5533 -2.34014 0.00769487 98 70 129
26.5553 2.11325 0.00683432 97 67 127
26.623 -2.20289 0.00777224 98 70 130
26.5517 2.04335 0.00870327 97 67 127
26.6233 -2.13644 0.0081628 96 70 131
26.6918 -3.01554 0.00752217 99 70 130
26.6234 1.37487 0.010267 96 66 128
26.7609 -3.01463 0.00703574 98 70 129
26.6928 1.50769 0.00842424 96 66 127
26.7629 1.71243 0.00833927 95 64 124
26.826 -2.54222 0.00694225 95 70 128
26.7631 1.37262 0.00834501 96 64 127
26.8252 -3.01318 0.00747079 98 70 129
26.7585 1.30647 0.00769971 97 65 127
26.8239 -2.94365 0.00710748 98 70 129
26.8946 -0.987637 0.00775559 101 71 133
26.8221 1.30918 0.00755251 98 66 127
26.9586 -0.990295 0.00809217 101 71 133
26.8979 3.26149 0.0106482 100 70 130
26.8963 -0.854058 0.00782942 101 71 133
26.9588 -0.718437 0.00826164 101 71 131
26.8947 3.53915 0.00887524 97 67 127
26.8982 3.60557 0.0105323 92 69 121
26.9605 -0.784747 0.00795616 101 71 132
27.0964 -3.62071 0.00604152 101 71 131
27.0295 0.769182 0.00920511 101 70 130
27.0947 0.698024 0.00863171 100 69 129
27.1637 -3.21438 0.0069511 100 72 131
27.1637 -3.41764 0.006615 102 71 132
27.0985 0.901035 0.00848393 100 69 129
27.1631 -3.35313 0.00717863 100 72 131
27.0925 0.834551 0.00832126 101 70 130
27.2317 -3.21774 0.00668506 100 72 131
27.1661 1.03694 0.00900279 97 66 127
27.2985 -4.02562 0.0071341 97 79 125
27.2292 0.0920229 0.00958676 98 68 132
27.2975 -4.22692 0.00638007 79 118 117
27.2296 0.296725 0.00852946 101 70 130
27.297 -4.15989 0.00589058 103 128 142
27.2271 0.224922 0.00758448 100 70 130
27.3649 -3.82152 0.00591347 98 73 130
27.2964 0.564706 0.00889998 100 68 131
27.2991 0.16079 0.00749088 99 69 132
27.3656 -4.22539 0.00639582 82 121 121
27.4322 -3.34971 0.00664117 102 72 134
27.3671 0.162103 0.00977303 98 69 132
27.4336 -3.28117 0.00651296 101 73 134
27.365 0.0934981 0.00726599 97 67 131
27.4327 -3.485 0.00830118 102 72 132
27.364 0.296139 0.00800231 101 70 131
27.436 3.26687 0.0109017 97 68 127
27.5 -0.9898 0.00749514 99 69 131
27.4994 -1.05572 0.00643516 99 69 133
27.4308 3.33203 0.0089276 96 68 126
27.5003 -0.854113 0.00792726 101 70 133
27.431 3.39963 0.0101575 94 68 125
27.5052 4.07652 0.00788624 76 132 104
27.6337 -4.42914 0.00594403 82 147 119
27.5671 -0.0423044 0.00816559 96 66 128
27.5651 -0.109873 0.00816157 97 67 129
27.6358 -4.36264 0.00599757 75 143 113
27.564 3.80458 0.00905069 62 79 94
27.6361 -0.443509 0.00763058 98 68 132
27.635 -0.515909 0.00888929 99 68 135
27.5652 3.86642 0.0114832 83 125 118
27.7006 -4.4295 0.00659947 77 141 113
27.5638 3.9414 0.0103139 83 134 115
27.6321 -0.311034 0.00855469 98 68 131
27.701 -0.113722 0.00798896 96 66 130
27.6356 3.80542 0.00974113 60 80 92
27.6999 3.19474 0.00795093 95 64 124
27.7702 -1.05777 0.00743529 97 69 130
27.7722 -1.12339 0.00844587 96 68 129
27.7043 3.26612 0.0111791 97 67 128
27.7733 -0.917901 0.0081971 100 70 132
27.6988 3.33299 0.00981416 97 67 128
27.7693 3.67201 0.00955172 85 75 116
27.8372 -0.854809 0.00697494 101 70 133
27.8357 -0.718158 0.00755347 101 69 134
27.7717 3.5399 0.0104125 93 69 122
27.9064 -1.05497 0.00730524 99 69 131
27.835 3.19394 0.00861543 95 65 125
27.9729 2.99353 0.0092395 98 66 128
28.0406 -1.25619 0.00810935 99 69 131
27.9692 3.0611 0.00709543 98 67 128
27.9078 -1.12581 0.0079375 98 70 131
27.8364 3.26076 0.00822378 96 66 126
28.0406 -1.32755 0.00716613 99 71 132
27.9059 3.19982 0.00961974 97 66 126
27.9699 -1.25672 0.00678594 98 70 131
28.1099 -1.25758 0.00750685 99 69 132
28.0393 2.85763 0.00991111 97 65 128
28.1064 -1.3265 0.00686246 99 70 131
28.0423 2.92947 0.00958175 97 65 128
28.1055 2.65526 0.00757109 97 65 128
28.1725 -1.73099 0.00721025 101 69 134
28.2415 -1.52979 0.00609932 100 70 134
28.1697 2.79164 0.00921904 96 64 129
28.1729 2.58727 0.00915137 97 65 129
28.244 -1.32753 0.00735337 100 70 133
28.2451 1.97984 0.0079994 99 65 131
28.3101 -2.26879 0.00712902 99 71 130
28.2401 2.04226 0.00864652 98 66 131
28.3084 -2.33946 0.00647523 99 71 132
30.6061 -3.14721 0.00557178 99 71 135
30.537 1.23642 0.00846929 97 65 130
28.4411 1.98466 0.00737767 99 67 132
28.5166 -1.39137 0.00805441 100 70 132
28.5782 -1.46014 0.00744892 100 70 132
28.5137 2.92767 0.00991249 97 66 126
28.5808 -3.41687 0.00558426 101 71 131
28.5127 0.83415 0.00928521 98 66 128
28.6493 -2.60623 0.00694403 97 68 132
28.5809 1.77489 0.0080856 99 67 132
28.7149 -2.47591 0.00621516 97 69 130
28.6474 1.77847 0.00889728 99 67 132
28.7138 -2.5404 0.00629847 98 70 131
28.6511 1.84749 0.00795961 99 67 132
28.7164 -2.8768 0.00557832 111 79 144
28.6463 1.37123 0.00859935 100 68 133
28.783 -2.74232 0.00652506 102 72 139
28.7136 1.57755 0.00780895 101 69 134
28.7812 -2.54195 0.00666331 98 70 131
28.714 1.37113 0.00708321 101 69 134
28.8496 -2.60587 0.00684832 97 68 133
28.7832 1.77711 0.00855027 99 67 132
28.7787 0.766897 0.00755852 99 67 132
28.8515 -3.48534 0.00583337 102 72 132
28.9161 -2.87915 0.00644477 102 70 137
28.8529 1.37355 0.00819875 101 69 134
28.8492 1.17543 0.00739115 98 66 131
28.9148 -3.21601 0.00636178 100 70 131
28.9863 -3.14849 0.00620962 98 68 132
28.9159 1.23955 0.00942259 99 67 132
28.9857 -3.48394 0.00663674 104 73 133
28.916 0.767307 0.00910552 101 69 134
29.0535 -1.66309 0.0063785 98 66 130
28.9861 0.90325 0.00801532 99 67 130
29.0524 -1.73144 0.00726326 99 67 131
28.9878 0.970795 0.0090396 100 68 131
29.0553 2.79225 0.00886063 97 65 127
29.122 -1.59489 0.00742452 98 68 132
29.1867 -3.8918 0.00674723 103 75 134
29.1195 0.631209 0.00799413 100 70 132
29.2556 -3.68908 0.00597062 102 73 131
29.1843 0.563537 0.0094445 99 69 131
29.2533 -3.75867 0.00646592 103 74 133
29.1871 0.630089 0.00717526 99 69 131
29.3223 -3.89088 0.00532244 100 73 132
29.2567 0.295809 0.00762684 102 70 137
29.323 -3.95681 0.00569642 97 73 130
29.2557 0.363037 0.00806711 101 69 135
29.3229 0.496743 0.00655946 100 68 133
29.3906 -3.75523 0.00656507 100 71 132
29.3883 -3.82201 0.00560008 101 72 131
29.323 0.565625 0.00716087 99 69 131
29.4586 -4.09267 0.00605428 109 102 149
29.3873 0.160717 0.00792707 103 70 137
29.528 -4.29984 0.00525372 81 132 120
29.4596 -0.0422482 0.00856016 100 68 135
29.5217 -4.35835 0.00512523 80 136 119
29.4581 0.0256203 0.00802068 101 69 136
29.3913 4.14505 0.0105501 81 134 105
29.5945 0.362705 0.00783189 100 69 134
29.6602 -4.02367 0.00537276 93 78 132
29.5238 4.00361 0.00861467 86 132 110
29.5941 0.434356 0.00756191 99 67 133
29.6613 -3.82346 0.00580231 100 73 131
29.5235 3.93903 0.00854922 95 134 122
29.6604 -3.89123 0.00632198 99 74 131
29.5939 0.498495 0.00878002 99 67 132
29.5248 3.86715 0.00900356 87 115 115
29.6617 -0.445627 0.00777763 97 65 132
29.5903 3.80298 0.0100979 69 80 103
29.6591 -0.650951 0.00703299 98 66 133
29.5984 3.74164 0.00989998 94 89 127
29.7274 -0.651285 0.00741633 98 67 134
29.6593 3.60161 0.00833877 96 73 127
29.8619 -0.7836 0.00645702 101 69 135
29.7934 3.39818 0.00943742 96 68 128
29.863 -0.719507 0.00610862 100 68 133
29.7946 3.33103 0.00961266 97 68 127
29.9313 -1.12396 0.00681825 101 69 136
29.8583 3.26391 0.00931332 97 66 126
29.9321 -1.05695 0.00702596 101 69 136
29.8676 3.19713 0.00954203 97 66 126
29.9294 -1.25709 0.00684476 98 67 134
29.8672 3.12842 0.0103199 97 66 128
29.9962 -1.25616 0.00734372 99 68 135
29.9312 2.99375 0.00824089 97 65 132
30.1359 2.39005 0.00694083 97 65 130
30.1983 -1.99981 0.00618691 100 69 136
30.0645 2.79075 0.00909895 95 63 128
30.1987 -1.79751 0.00651378 99 68 136
30.1293 2.45044 0.00956722 97 65 130
30.0676 2.72307 0.00816403 95 64 128
30.1979 -1.72999 0.00700264 99 68 136
30.1328 2.65907 0.00775636 97 65 128
30.2677 -1.99931 0.00702542 100 69 137
30.1962 2.52382 0.00939092 97 65 130
30.2684 -1.93264 0.00676717 100 69 137
30.1963 2.45174 0.00898161 97 65 130
30.4021 -2.06648 0.00686778 99 68 137
30.3321 2.24904 0.0081849 99 67 132
30.4013 -2.00005 0.00632943 100 69 137
30.3338 2.17987 0.00969159 99 67 132
30.4721 -2.33617 0.00565324 100 68 135
30.4005 2.04644 0.00859621 100 68 133
30.4726 -2.26973 0.00649463 99 67 134
30.4028 1.98378 0.0074215 100 68 132
30.5392 -2.13545 0.00654312 98 67 135
30.4718 1.98161 0.00747933 100 68 132
30.5392 -2.53981 0.00631864 99 69 135
30.4739 1.84835 0.00867153 101 69 134
30.5357 1.84574 0.00673751 103 70 136
30.6057 -2.40481 0.00653529 101 69 136
30.6052 -2.6069 0.00643766 99 70 136
30.5373 1.77589 0.00850967 104 69 137
30.6085 -2.53922 0.00656158 99 69 135
30.5403 1.7143 0.00728968 103 69 136
30.6728 -2.13819 0.00627337 99 68 136
30.6059 1.64086 0.00841825 102 67 134
30.6732 -2.06899 0.00584861 99 68 137
30.6087 1.57559 0.0078685 100 67 132
30.7402 -2.94582 0.00605903 96 67 133
30.6745 1.44144 0.007226 99 67 130
30.8071 -2.74249 0.006155 99 69 134
30.7365 1.37322 0.00762008 98 66 130
30.8072 -3.21589 0.00562703 99 70 134
30.7387 1.30601 0.00796192 96 64 129
30.8087 -3.14793 0.00630266 98 70 134
30.7406 1.23646 0.00876189 96 64 129
30.8753 -3.21568 0.00504331 99 70 134
30.8104 1.17412 0.00752231 97 65 130
30.8768 -3.14781 0.00555686 99 70 135
30.8087 1.10546 0.00795537 97 65 130
30.9442 -3.28449 0.0057405 99 70 134
30.8744 1.03575 0.00735629 99 64 132
30.9428 -3.21468 0.00584773 99 70 134
30.8751 0.968936 0.00746012 99 64 132
31.0107 -3.55463 0.00547197 100 71 131
30.9437 0.834378 0.00832431 99 67 134
31.077 -3.34997 0.00569178 99 69 132
31.0096 0.76789 0.0075708 98 66 133
31.1439 -3.82389 0.00604801 99 71 131
31.0757 0.565069 0.00753242 99 67 134
31.2117 -2.3362 0.00552244 99 68 136
31.1443 0.497565 0.00773854 99 67 134
31.2133 -2.27 0.00591447 99 67 136
31.1464 0.429878 0.00780588 98 67 135
31.3452 -4.02477 0.00671309 95 78 124
31.2789 0.226557 0.00804006 100 69 137
31.3491 -3.95881 0.00556461 100 77 129
31.2785 0.161012 0.00709462 99 68 136
31.346 -4.43081 0.00602871 80 142 118
31.2791 0.0926218 0.00728704 99 67 134
31.347 0.089634 0.00736179 98 66 133
31.4159 -4.29509 0.0059289 78 130 126
31.4143 -4.43217 0.00548495 79 141 116
31.3462 -0.0399842 0.00772885 99 67 134
31.4145 -0.111802 0.00692243 99 67 134
31.5474 3.66983 0.00706919 95 72 125
31.6172 -0.584419 0.00693221 100 68 137
31.5504 3.73691 0.00657659 88 76 117
31.6191 -0.649374 0.00736297 99 68 136
31.6173 3.67104 0.00751533 94 72 124
31.6869 -0.717591 0.00715152 100 69 137
31.6852 4.07539 0.00591328 82 142 112
31.7522 -0.785049 0.0069917 100 69 137
31.7528 3.2629 0.00725844 94 64 128
31.8188 -0.989364 0.00659468 99 68 136
31.7509 3.33394 0.00775614 98 64 132
31.8181 -1.05415 0.00648909 99 68 136
31.8865 2.99492 0.0070028 94 64 128
31.9551 -1.25828 0.00692485 100 68 137
31.8881 3.06127 0.00607975 94 65 129
31.955 -1.32622 0.00576961 101 68 137
31.9559 2.99158 0.00689294 93 64 128
32.0227 -1.46137 0.0071768 100 68 136
32.024 2.65554 0.00616981 96 64 131
32.2913 1.23892 0.00667196 98 64 132
32.3577 -3.01384 0.00553266 98 69 136
32.0894 -1.59492 0.00694616 101 70 138
32.293 -2.00013 0.00589146 99 67 134
32.1572 -2.60804 0.00592371 99 67 134
32.0904 1.64141 0.00709958 100 66 135
32.0899 1.98224 0.00573849 101 66 134
32.1556 -2.40452 0.00557086 100 68 135
32.2934 -2.06605 0.00676604 100 68 135
32.2947 2.18265 0.00710498 102 67 134
32.3604 -2.07039 0.00569988 99 68 136
32.2888 2.25046 0.00714793 102 67 133
32.3601 -2.13699 0.00603534 99 68 135
32.4303 1.84623 0.00584729 101 66 134
32.496 -2.53988 0.0061582 100 68 135
32.7666 1.64067 0.00639457 100 68 135
32.8324 -3.21564 0.0060032 99 69 135
33.0373 0.429777 0.00614791 101 68 137
33.102 -3.75838 0.00655722 102 74 134
33.1047 0.432049 0.00699225 102 69 138
33.1718 -3.95689 0.00664256 102 80 136
33.1718 0.295767 0.00604256 101 68 137
33.2359 -3.95856 0.00724424 102 80 136
33.169 0.361669 0.00578146 101 68 137
33.2386 -4.02576 0.00682782 102 88 140
33.2397 0.0897663 0.00611294 100 64 134
33.3052 -4.16118 0.00681017 148 169 192
33.2378 0.158724 0.00708454 100 66 134
33.3063 -4.22879 0.00706928 129 163 171
33.3061 1.44268 0.00631942 101 68 136
33.3724 -4.36416 0.00697478 83 139 118
33.3724 -0.110604 0.00608665 100 68 136
33.4396 -4.36313 0.00632613 83 142 118
33.3733 3.93964 0.00625534 90 125 121
33.4395 -0.312585 0.00630793 101 68 137
33.4423 -0.244973 0.0055631 101 68 137
33.3725 4.1425 0.00684316 81 130 108
33.3687 4.07425 0.00707718 82 128 110
33.4388 -0.177991 0.00578987 101 69 136
33.5728 3.73803 0.00616019 90 77 111
33.6468 -0.852637 0.00592687 101 68 139
33.7085 -0.987647 0.00513064 103 67 139
33.6436 3.39956 0.00664324 99 69 128
33.6415 3.33399 0.00603759 99 69 129
33.713 -0.918634 0.00548628 102 67 140
33.7113 -0.854538 0.005272 101 67 139
33.6439 3.53522 0.007475 97 68 126
33.7763 -1.12459 0.0053794 104 67 139
33.7087 3.1299 0.00768035 97 66 132
33.9109 -1.32527 0.00566542 104 68 140
33.8474 3.53707 0.00731423 99 70 127
33.9123 2.79178 0.00562219 99 67 132
33.9793 -1.59601 0.00573953 100 68 135
33.9767 -1.52831 0.00555703 103 68 138
33.9144 2.72306 0.0065688 100 68 134
33.9801 -1.45962 0.00569044 102 67 140
33.9108 2.92729 0.00707268 97 65 130
34.0475 -1.52698 0.00573417 102 69 138
33.9819 2.85755 0.00739738 99 67 132
34.0475 -1.731 0.00574707 100 69 137
33.983 2.52308 0.00621995 99 66 135
34.1824 -1.93351 0.00530332 101 65 135
34.1162 2.38739 0.0060193 100 66 134
34.1847 2.1823 0.00604304 101 66 134
34.1829 2.11706 0.00555689 99 67 134
34.2488 -2.1369 0.00646043 103 71 138
34.317 -2.13637 0.00570174 103 71 138
34.2523 2.25134 0.00595047 100 66 134
34.5881 -2.74298 0.0059972 102 70 136
34.5192 1.64088 0.00632048 100 67 136
34.6552 -2.33876 0.00638012 103 71 139
34.5872 1.91354 0.0069601 99 63 135
34.6578 -3.34958 0.00614331 101 69 134
34.5888 1.03783 0.0065724 103 67 141
34.6548 1.17024 0.00551163 103 68 137
34.7213 -3.14921 0.00571653 102 70 135
34.7891 1.03663 0.0055744 103 67 141
34.8584 -3.34984 0.00676794 102 70 135
34.9262 -3.55304 0.00626167 103 72 132
34.9293 -3.48491 0.00652621 103 71 134
34.8595 0.766442 0.00575041 104 66 139
34.9907 -3.75515 0.00720983 104 73 135
34.9257 1.10366 0.00606988 103 67 141
35.0612 0.361626 0.00526068 102 64 137
35.1278 -3.89071 0.00725068 105 73 136
35.1145 0.767562 0.00676342 104 66 139
35.1966 -3.62018 0.00649432 103 71 132
35.1945 -3.55243 0.00729122 103 71 134
35.1962 4.07281 0.00544344 87 135 119
35.2623 0.156702 0.00872869 103 69 138
35.327 -4.22779 0.00674674 170 184 208
35.3352 -0.254407 0.00679235 104 66 139
35.2651 4.0057 0.00656425 90 132 120
35.4622 0.76814 0.0112559 102 66 138
35.599 -0.8536 0.00559489 103 67 139
35.6647 -0.515751 0.00514974 105 70 138
35.6048 3.7463 0.0152148 94 88 124
35.802 -1.0539 0.00568684 102 69 140
35.8023 -1.12219 0.00543489 102 69 140
35.7394 2.93941 0.0167941 95 64 132
35.8709 -1.52773 0.00551267 107 70 142
35.8068 2.85283 0.0160586 98 67 135
36.0731 -1.6621 0.00558766 103 70 140
36.1396 -1.72994 0.00551486 103 70 139
36.1441 -2.06708 0.0063931 101 69 138
36.2765 -1.66265 0.00595788 105 70 140
36.2738 -2.60714 0.00690993 103 70 139
36.2736 1.83806 0.00806278 100 69 137
36.3416 -2.47249 0.0063171 107 74 143
36.2792 1.64389 0.00811523 102 66 138
36.3397 -2.27135 0.006272 102 71 139
36.6132 -3.08197 0.00637519 103 71 137
36.678 -2.94477 0.00650643 103 71 137
36.6156 1.44172 0.0115625 99 66 137
36.7462 1.4372 0.00806025 98 65 136
37.1533 0.225461 0.00518681 105 69 143
37.2197 -4.15926 0.00750358 179 183 213
37.4895 0.0908426 0.00540651 107 69 142
37.5582 -4.29628 0.00681882 94 134 132
38.9764 0.0911002 0.0057381 104 70 144
39.0478 -4.22984 0.00792443 147 175 186
39.3132 -0.649808 0.00682719 106 71 145
40.2577 1.57656 0.00581347 107 67 140
40.3246 -2.67607 0.00740314 105 71 145
40.3921 -2.33846 0.00712124 108 72 146
40.3251 1.3066 0.00639582 104 68 142
40.3916 -3.01381 0.00740125 106 73 144
40.3264 1.98082 0.00634775 104 66 141
22.6434 -1.19118 0.00790345 98 69 121
22.5778 3.20005 0.0126121 96 67 123
22.4404 0.16331 0.00809829 98 69 123
22.5028 -4.22588 0.00855497 71 118 102
17.1817 2.92886 0.0103309 87 59 110
25.4074 -2.74377 0.00828659 98 70 129
25.3413 1.3685 0.00940962 98 69 128
25.4771 -2.81192 0.00683777 98 71 130
25.4136 1.58087 0.0096465 95 66 126
25.4129 1.44209 0.00802999 97 69 128
25.4742 -2.9461 0.00780275 99 71 130
25.545 -3.48387 0.00776956 99 73 130
25.4754 0.700211 0.00870482 97 67 127
25.545 -3.55519 0.00877646 99 74 131
25.4753 0.767726 0.00893887 96 66 126
25.6101 -4.22561 0.00679341 87 124 115
25.5428 0.159235 0.00907709 99 69 129
25.6807 -4.2974 0.00763656 68 126 102
25.6101 0.0882421 0.00869784 97 67 127
25.6132 0.224137 0.00786017 98 68 128
25.6798 -3.89024 0.00791906 99 76 129
25.748 -4.02264 0.00708608 89 82 123
25.6836 0.223778 0.00988884 98 68 128
25.8096 -1.39188 0.00889187 98 69 129
25.7468 0.0925747 0.00895004 98 68 128
25.809 -1.46073 0.00762295 99 69 129
25.7459 0.160894 0.00872911 98 68 128
25.8143 3.33267 0.00914174 95 64 124
25.8781 -1.05696 0.00840164 97 71 129
25.7502 4.008 0.0105354 77 136 106
25.8796 3.26406 0.0107574 95 64 124
25.948 -1.12566 0.00816654 96 71 129
25.9457 -1.19311 0.00660458 97 70 129
25.8783 3.33564 0.00994393 95 64 124
25.9506 -0.715401 0.00829596 100 70 130
25.877 3.40393 0.010604 94 64 123
26.0118 -0.721837 0.00909084 98 70 129
25.9485 3.53501 0.0087709 93 67 125
26.0092 -0.786273 0.00866236 100 71 130
25.9483 3.60174 0.00841412 88 67 119
25.9463 3.39901 0.00861936 94 63 123
26.0146 -0.849996 0.00833992 99 69 129
26.0119 -0.583178 0.00762109 98 68 128
25.9506 3.67457 0.0108735 86 74 117
25.9502 3.86753 0.00961225 81 128 113
26.0135 -0.519196 0.00959956 98 68 128
25.9497 3.80673 0.00930059 62 84 91
26.0093 -0.442614 0.00920078 98 68 128
26.0827 -1.12416 0.00785759 99 71 129
26.0106 3.46674 0.0105114 93 64 123
26.0842 -1.05296 0.00775485 99 71 130
26.0105 3.39948 0.0114378 94 64 124
26.0851 3.06053 0.00745908 96 66 126
26.1491 -1.18912 0.00759973 100 71 130
26.0818 3.26194 0.00858571 94 64 124
26.1478 -1.12025 0.00911062 99 71 129
26.0765 3.19486 0.00913764 94 64 124
26.1465 -1.05734 0.00969926 99 71 130
26.1477 3.40053 0.00961963 94 63 123
26.2193 -0.849889 0.00850819 96 68 126
26.1436 3.32826 0.0108001 93 63 123
26.2201 -0.781925 0.0079652 96 68 126
26.282 -1.19063 0.00725209 98 70 129
26.2214 3.06127 0.0119191 96 66 126
26.2218 3.20071 0.00844413 91 63 122
26.2886 -1.05491 0.00809144 99 71 130
26.2842 3.19558 0.0096351 91 63 122
26.3535 -1.52844 0.00843421 98 70 129
26.3566 -1.1896 0.00770328 98 70 129
26.2905 2.85474 0.0100296 99 70 128
26.3552 2.99385 0.0100395 98 68 128
26.4173 -1.25479 0.00901936 98 70 130
26.3559 3.19562 0.0114954 92 64 123
26.4231 -1.19063 0.00696613 98 70 129
33.5065 1.57565 0.00603691 100 67 136
33.5746 -2.80986 0.00701423 102 70 135
26.4181 -1.12424 0.00801974 98 70 129
26.3554 3.12909 0.00984473 94 64 124
26.4899 -1.25542 0.00829891 96 71 129
26.4175 3.13063 0.0100194 94 64 124
26.4153 3.33578 0.00988757 90 65 123
26.4918 -0.919118 0.00802932 100 70 130
26.4925 -0.850694 0.00740098 100 70 130
26.4208 3.26374 0.0100143 91 64 123
26.4873 2.5203 0.00978455 97 66 127
26.5558 -1.86303 0.00643547 97 70 129
26.554 -1.79824 0.00687315 97 69 128
26.4923 2.45563 0.0110461 96 65 127
26.6917 -2.40424 0.00800169 95 71 129
26.6246 1.84588 0.00930374 96 63 124
26.6273 2.04516 0.00932037 97 67 127
26.6921 -2.33729 0.00694624 97 71 129
26.7582 -2.4036 0.00769858 95 71 129
26.6897 1.98501 0.00882458 97 67 127
26.6888 2.18201 0.00743992 97 66 126
26.7589 -2.06601 0.00818375 96 70 132
26.8251 -2.47501 0.00701232 94 69 127
26.7616 1.91029 0.0099678 96 66 126
26.7585 1.84832 0.00783449 96 65 125
26.8228 -2.40365 0.00723501 94 70 128
26.8265 -2.33802 0.00629295 94 70 130
26.7565 2.04881 0.00958835 98 68 128
26.827 1.9811 0.00756945 97 67 127
26.8952 -1.66074 0.00698782 97 69 128
26.9615 -1.32135 0.00681532 100 71 131
26.8967 3.06417 0.00951785 96 67 126
26.9597 2.99444 0.00912268 95 67 126
27.0292 -1.39173 0.0077927 101 73 134
27.0251 -1.05784 0.00847775 99 69 132
26.9584 3.19544 0.00973196 98 68 128
27.0969 -2.60796 0.00667438 95 70 128
27.027 1.63767 0.00855992 97 67 127
27.0935 -3.08416 0.00660561 97 70 129
27.0285 1.30519 0.0105874 99 68 128
27.0986 -3.01585 0.00655085 96 71 129
27.0289 1.23586 0.00918434 100 69 129
27.0941 1.4393 0.00733661 97 68 126
27.1611 -2.87684 0.00777324 99 70 130
27.1657 -2.81129 0.00713196 98 70 129
27.0986 1.37615 0.0101094 98 68 128
27.2982 -3.28134 0.00749556 101 73 132
27.2291 0.969469 0.00807673 99 68 128
27.2988 1.03754 0.0084062 98 67 127
27.3658 -3.21612 0.00600813 101 72 132
27.3629 -3.68718 0.00670378 99 71 130
27.302 0.699885 0.00898194 101 70 130
27.4291 -3.82453 0.00685038 98 73 130
27.3689 0.633695 0.00927776 100 69 129
27.4305 -4.02589 0.0065061 99 85 131
27.3667 0.835721 0.00821929 98 68 128
27.367 0.767581 0.00677784 99 69 129
27.432 -3.95665 0.0067997 99 76 131
27.435 0.56841 0.00898529 100 69 129
27.5013 -3.68961 0.00713562 101 72 131
27.5667 -3.75836 0.00743752 100 72 129
27.5006 0.767305 0.00919961 98 67 127
27.5683 -3.68673 0.00642517 101 73 131
27.5035 0.699027 0.00861878 99 68 128
27.6331 -3.82421 0.00608222 99 71 128
27.5692 0.429796 0.00923262 99 67 131
27.5664 0.0904293 0.00818474 98 68 130
27.6348 -4.29468 0.00648923 69 130 108
27.7006 -3.89174 0.00644156 97 70 128
27.6346 0.0245691 0.00796149 97 67 129
27.6354 0.223582 0.00752088 100 70 134
27.7004 -4.09477 0.00752896 105 103 142
27.6344 0.161352 0.00796115 98 69 131
27.7005 -4.02392 0.0066932 89 72 123
27.7716 -0.378804 0.00852782 99 69 133
27.6961 3.87116 0.00913161 86 123 117
27.8376 -0.176795 0.00741135 96 65 131
27.906 -4.42883 0.00629784 81 146 116
27.7686 4.07612 0.0108044 76 131 99
27.8356 -0.517828 0.00810754 101 69 134
27.7709 3.86444 0.00948901 82 117 112
27.8391 3.73887 0.00730639 74 79 104
28.04 -1.80051 0.00722964 101 69 134
27.9745 2.4525 0.00963057 99 67 129
27.9086 -0.516484 0.00799644 101 69 134
28.0416 -1.8679 0.00727321 100 68 133
27.9701 2.51985 0.00775005 99 67 128
27.9073 -0.58373 0.00876547 101 69 134
27.8412 3.80635 0.00818876 60 82 90
27.9062 -0.378267 0.00765373 101 71 135
28.0416 -1.93267 0.00697457 100 69 132
27.9694 2.31582 0.00928459 97 67 131
27.8374 3.86722 0.0107749 75 112 106
28.1729 -1.66425 0.0067927 101 69 134
28.1091 2.58545 0.00945668 97 65 128
28.1102 -0.717692 0.00637611 101 69 134
28.0441 3.3985 0.00971173 98 70 129
28.1079 3.12971 0.00888699 100 68 130
28.1748 -1.12447 0.00837036 100 68 133
28.1063 3.19811 0.0077684 100 70 130
28.1743 -1.19293 0.00724037 100 69 133
28.1739 -0.988858 0.00720924 99 69 132
28.1074 3.26146 0.00899417 101 70 130
28.2421 -0.785648 0.00724396 100 70 132
28.1736 3.12978 0.0101135 98 67 127
28.3086 -1.73042 0.00803301 101 69 134
28.2456 2.5211 0.0110717 98 66 132
28.3074 -1.80118 0.00755856 101 69 134
28.2444 2.5874 0.00836011 97 65 130
28.3091 -1.59601 0.00689094 101 70 134
28.2401 2.65264 0.00782134 96 64 129
28.3751 -1.32412 0.0067866 101 69 134
28.3085 2.79492 0.00851645 96 64 127
28.3784 -1.39349 0.00641629 100 68 133
28.309 2.86201 0.0100178 97 65 128
28.4446 -1.38945 0.0077857 101 69 134
28.3798 2.99419 0.00782842 97 66 127
28.3748 2.52458 0.00687628 98 66 132
28.4435 -1.73083 0.00759288 102 70 135
28.4421 -1.7998 0.00747197 102 70 135
28.3766 2.58846 0.00944008 98 66 129
28.5162 -1.93241 0.00750764 101 71 133
28.4423 2.52375 0.0088422 98 66 131
28.5125 -2.00103 0.0070925 101 71 133
28.4405 2.58517 0.0103245 98 66 129
28.5787 -1.86549 0.00645579 100 70 132
28.5131 2.51804 0.00966491 98 66 130
28.6486 -1.93311 0.00675643 101 71 134
28.5786 2.17935 0.00802339 101 69 134
28.6455 2.38876 0.00858553 99 67 131
28.7146 -2.00045 0.00583352 101 69 135
28.6479 1.91347 0.00849233 99 67 132
28.7163 -2.33777 0.00634203 96 68 129
28.6504 1.97693 0.00834959 98 66 131
28.717 -2.40479 0.00614263 95 67 126
28.7131 2.11822 0.00642441 99 67 132
28.782 -2.20312 0.00660701 97 67 130
28.7828 -2.06644 0.00745847 99 67 133
28.7173 1.98328 0.00950842 99 67 132
28.7815 1.30773 0.00725921 101 69 134
28.8511 -2.94357 0.00753402 104 72 137
28.8529 -3.01394 0.00625893 101 69 134
28.7829 1.37617 0.00890818 101 69 134
28.988 -2.60571 0.00694953 97 68 133
28.9175 1.77852 0.00826044 99 67 132
28.9151 1.30788 0.00810038 99 67 132
28.9855 -2.94408 0.00635952 103 71 136
29.0528 -2.27283 0.00674368 99 70 131
28.9848 1.50516 0.00867838 99 67 132
28.987 1.30406 0.00794836 99 67 132
29.0517 -2.06977 0.00656678 100 68 133
29.0524 -2.13633 0.00656597 101 69 134
28.9878 1.3728 0.00852126 100 68 133
29.0537 2.25011 0.00663763 100 68 133
29.1206 -2.13607 0.00662041 100 70 134
29.0555 2.31641 0.00858578 99 67 132
29.121 -1.93727 0.00690091 101 69 136
29.0521 2.3865 0.00643244 99 67 132
29.1207 -2.00316 0.00619497 101 69 135
29.1879 1.17263 0.00630655 99 67 130
29.256 -3.21551 0.00574376 99 69 131
29.2538 -3.5535 0.00634304 102 72 132
29.1854 0.698828 0.00734169 99 69 131
29.3232 -3.41628 0.00538723 102 73 132
29.2552 0.90045 0.00803645 99 67 132
29.2562 0.699123 0.00835806 99 69 131
29.325 -3.21437 0.00585285 99 69 131
29.3886 -3.28113 0.0072122 101 71 133
29.3251 1.10097 0.00769697 101 66 133
29.4611 -3.8922 0.00633791 98 73 131
29.3881 0.498116 0.00756375 100 68 133
29.5247 -3.75823 0.0056905 99 71 131
29.4597 0.494528 0.0083275 100 68 133
29.5243 -3.82349 0.00520605 99 71 130
29.4596 0.567135 0.00767285 100 68 133
29.5282 0.22317 0.00846177 103 71 138
29.5231 0.297909 0.00797016 102 70 137
29.5936 -4.36269 0.00586889 76 135 115
29.5252 0.0904047 0.00687376 101 69 136
29.5918 -0.110006 0.00781326 99 67 134
29.6602 -4.36239 0.00559725 76 132 114
29.6603 -4.42743 0.0056241 76 140 112
29.5935 -0.0420792 0.00735321 99 67 134
29.7295 -4.16529 0.00514321 135 158 184
29.6606 0.0904288 0.00786278 100 68 135
29.6618 -0.111656 0.00629804 99 67 134
29.7958 -4.36339 0.00522582 80 140 116
29.7259 -0.111287 0.00716485 98 66 133
29.6592 4.14452 0.00872616 82 134 108
29.8633 -0.113494 0.00728494 98 66 133
29.7941 3.8046 0.00848435 64 79 93
29.9314 -0.518392 0.00760252 100 68 135
29.8607 3.73816 0.00779783 91 81 120
29.9306 -0.652445 0.0079341 100 68 135
29.8606 3.60145 0.00989594 96 73 126
29.996 -0.650122 0.00658089 100 69 134
29.9311 3.46583 0.0089504 92 67 125
30.1338 1.847 0.00606073 100 68 131
30.2006 -2.54143 0.00615624 97 68 134
30.0635 3.33248 0.00917373 96 67 126
30.1981 -2.3363 0.00566405 100 68 135
30.1311 1.91308 0.00775673 99 67 132
30.0668 3.26203 0.00942969 97 66 127
30.1346 1.98134 0.00816784 100 68 133
30.198 -2.40376 0.00654072 99 67 134
30.0683 3.19769 0.00893043 97 66 129
30.1991 -1.12397 0.00718499 101 69 136
30.1349 3.12845 0.00881415 96 66 131
30.2684 -1.32533 0.00728974 106 73 140
30.1966 2.92522 0.00923143 95 63 128
30.2668 -1.25825 0.00738703 106 72 139
30.2001 2.85857 0.0085915 95 63 127
30.4013 -1.46207 0.00682343 100 69 136
30.3344 2.7247 0.00846066 98 67 127
30.4028 -1.32592 0.00617781 104 72 139
30.3379 2.58754 0.00750303 97 65 127
30.4749 -1.79729 0.00732389 104 73 141
30.403 2.58609 0.00786596 97 66 127
30.4712 -1.73027 0.00787158 102 71 139
30.3996 2.52286 0.007206 97 65 128
30.4709 -1.93437 0.00619157 100 69 137
30.4021 2.45301 0.00815381 98 66 129
30.5382 -2.00272 0.00569449 100 69 137
30.4703 2.38352 0.00880217 98 66 131
30.6728 -2.60834 0.00645811 99 70 136
30.6032 2.11824 0.00809636 100 68 131
30.6731 -2.53982 0.00504734 100 69 136
30.6067 2.04469 0.00861175 100 68 131
30.7398 -2.33881 0.00630644 101 69 136
30.6737 1.91013 0.0085984 101 69 133
30.8091 -2.60871 0.00616237 99 70 136
30.7367 1.77721 0.00817068 105 70 137
30.8764 -2.67531 0.00633198 98 69 135
30.8085 1.71163 0.00806162 103 68 136
30.9409 -2.74268 0.00643782 99 68 135
30.8744 1.57735 0.00651988 97 65 130
30.9424 -2.67598 0.00610972 98 69 135
30.8758 1.5064 0.00776521 97 65 130
30.9426 -2.60676 0.00628075 98 69 135
30.8762 1.44085 0.00704741 98 66 131
31.0758 -2.81138 0.00586996 99 68 135
31.0079 1.3039 0.00760739 100 68 131
31.0735 -3.27949 0.006095 98 69 133
31.0097 1.23899 0.00754573 99 67 132
31.0788 -3.22095 0.00502648 98 69 135
31.0106 1.17303 0.00739986 98 66 131
31.1456 -3.28278 0.00590574 98 69 133
31.0738 1.10209 0.00859544 100 65 133
31.1432 -3.21263 0.00573917 98 69 135
31.0749 1.03511 0.00784157 100 65 133
31.2131 -2.81109 0.00574376 99 68 135
31.1444 0.971569 0.00820222 98 66 133
31.2796 -3.6214 0.00557525 99 70 134
31.2145 0.767839 0.00837371 99 67 134
31.2764 0.69958 0.00790463 100 68 135
31.3469 -3.4188 0.00575543 99 69 133
31.3468 -3.89104 0.0059916 99 73 129
31.2791 0.631762 0.00700689 100 68 135
31.3483 -3.82286 0.00613927 99 71 130
31.2812 0.566461 0.00720727 100 68 135
31.4153 -3.68855 0.00530408 101 71 135
31.3456 0.566288 0.00756569 100 68 135
31.348 0.496003 0.00741231 100 68 136
31.4153 -3.89126 0.00581187 100 75 129
31.4832 -4.02513 0.00552267 96 77 123
31.4156 0.431659 0.0071057 100 69 137
31.5494 -4.22714 0.00643477 107 143 153
31.4826 0.159021 0.00717048 99 67 134
31.6175 -4.0263 0.00565736 96 78 125
31.5514 0.0900148 0.0074273 98 66 133
31.6851 -4.43094 0.00632843 79 138 114
31.618 -0.17707 0.00753709 101 66 136
31.6836 -0.177245 0.00763737 101 68 137
31.6178 4.0088 0.00908495 85 142 116
31.6854 -0.246557 0.00718996 101 68 138
31.7531 3.80385 0.00630957 70 83 104
31.8195 -0.447242 0.00691706 102 69 138
31.7531 3.87161 0.00870102 54 83 89
31.8158 -0.518157 0.0070735 102 69 138
31.8216 3.53484 0.00841148 94 69 127
31.8863 -0.584408 0.00668893 101 68 137
31.8217 3.66802 0.00937262 94 74 127
31.8886 -0.717082 0.00684189 99 68 136
31.8875 3.60238 0.00694689 93 69 125
31.9549 -0.783497 0.00676136 99 68 136
31.9522 3.53648 0.0084644 92 69 123
32.0198 -0.920447 0.00701016 98 67 135
32.0215 3.19464 0.00609208 95 64 126
32.2923 0.700214 0.00688584 97 66 134
32.3604 -3.55288 0.00598199 101 71 135
32.0893 -1.0555 0.0064228 98 67 135
32.2957 0.766702 0.00678074 97 66 134
32.0224 3.263 0.00711754 95 63 126
32.3606 -3.61964 0.00669781 101 71 135
32.0916 -1.12191 0.00751665 99 68 136
32.0917 3.06334 0.00603732 94 64 128
32.2933 -3.1469 0.00555287 97 68 135
32.158 -1.32678 0.0057361 100 67 136
32.1581 2.99433 0.00644854 94 64 128
32.2239 -1.39128 0.00626203 101 68 137
32.0907 1.44246 0.00559145 99 66 135
32.1579 -2.94441 0.00528781 96 67 134
32.2926 -1.52912 0.00635635 100 69 137
32.1584 -3.01224 0.00553751 96 67 134
32.0911 1.50679 0.00633142 99 66 137
32.2941 -1.59575 0.00643512 99 68 136
32.295 2.58781 0.00630219 98 66 133
32.3597 -1.66205 0.00616555 97 66 134
32.4947 2.31625 0.00706291 100 65 131
32.5628 -2.1362 0.00591291 99 68 136
32.5638 1.98232 0.00566175 102 67 135
32.6303 -2.27058 0.0059203 100 68 135
32.8308 -2.60868 0.00644663 100 68 135
32.7656 1.17227 0.00697981 99 67 134
32.8324 -2.74313 0.00621745 100 68 135
32.8342 1.57756 0.00548486 101 69 135
32.9003 -2.81021 0.00620237 100 68 134
21.1635 2.2477 0.00825347 97 68 122
21.2222 -1.80296 0.00995849 96 68 126
32.835 1.37435 0.00707206 99 67 134
32.9001 -2.87722 0.00607444 100 68 133
32.8997 1.50657 0.00680577 101 68 136
32.9678 -2.87806 0.00604091 100 68 133
20.89 -2.94147 0.00975804 98 71 125
20.8163 1.30793 0.0103117 99 72 123
32.9668 1.3051 0.0061279 99 67 134
33.0345 -3.08015 0.00665512 99 67 133
33.0373 0.970522 0.00635301 100 68 135
33.1006 -3.21568 0.00638986 99 69 133
33.104 0.96929 0.00612726 100 68 135
33.1699 -3.41941 0.0068487 101 70 135
33.2366 0.631731 0.00576142 99 68 136
33.3034 -3.61983 0.00681647 101 72 130
33.2399 0.698621 0.00687772 99 68 136
33.3054 -3.68798 0.00642006 102 73 132
33.2393 0.496373 0.00580335 100 68 137
33.3051 -3.75642 0.00675894 102 72 132
33.3053 0.902208 0.0065939 98 66 133
33.3728 -3.82354 0.00725433 102 74 133
33.3059 0.969349 0.00660939 99 67 134
33.3727 -3.89093 0.00707011 98 75 131
33.44 0.295372 0.00629598 100 67 137
33.5044 -4.09209 0.00707119 90 89 128
33.4403 0.361336 0.00620744 99 66 135
33.5064 -4.16089 0.00688152 151 169 196
33.506 0.0229736 0.00627508 102 66 138
33.5747 -4.22709 0.00662067 108 147 151
33.5749 -0.245123 0.00570557 100 67 136
33.507 4.13876 0.00605913 81 130 108
33.6447 -4.42771 0.00742337 85 149 119
33.6444 -0.245747 0.00680483 100 67 136
33.6468 4.07777 0.00827358 85 132 113
33.7101 -0.313628 0.00614253 99 68 136
33.7088 -0.246667 0.00571809 100 67 136
33.6455 4.00945 0.00623879 89 134 121
33.7771 -0.38046 0.00627378 99 68 136
33.7096 4.00263 0.00809003 92 131 122
33.778 -0.582906 0.00630683 99 67 135
33.7099 3.66981 0.00721634 92 71 119
33.8474 3.06083 0.00570824 95 64 132
33.9103 -0.852512 0.00551223 103 67 141
33.9767 -0.989479 0.00526904 103 67 139
33.9089 3.26285 0.0069726 98 67 134
34.0477 -0.986059 0.00542266 102 68 138
33.9821 3.39989 0.00652232 98 68 132
34.1115 2.92687 0.00582133 99 67 133
34.1834 -1.39252 0.00554669 103 67 139
34.2496 -1.59548 0.00549252 101 68 137
34.1829 2.65754 0.00689718 98 66 133
34.1838 2.85793 0.00689045 98 66 132
34.2518 2.79112 0.00556555 98 66 133
34.3183 -1.59652 0.00549059 102 69 138
34.4526 -2.00088 0.00516988 105 69 139
34.4521 -2.13503 0.00555809 103 71 138
34.588 -2.20251 0.00625703 103 71 138
34.5873 1.57632 0.00571522 99 66 135
34.6584 -2.81046 0.00623016 102 70 136
34.7227 -2.53963 0.00551621 101 70 138
34.6543 1.64202 0.00614995 100 67 137
34.7899 1.57551 0.00568004 101 65 135
34.8577 -2.80941 0.006377 102 70 137
34.8582 0.430456 0.00525792 104 66 139
34.926 -3.95801 0.00670793 105 78 134
34.8573 0.362057 0.00533769 104 66 139
34.9247 -3.89156 0.00685174 103 73 133
34.924 0.564408 0.00620536 103 67 139
34.9914 -3.21583 0.00656128 102 70 135
35.1261 1.24007 0.00562907 103 67 140
35.1985 -3.01338 0.00617918 102 70 135
35.1231 0.359949 0.0116176 103 65 138
35.1962 -4.02484 0.00675867 103 82 134
35.3299 0.223345 0.00869788 104 68 139
35.3967 -3.89051 0.00719883 105 73 133
35.404 0.296623 0.00893996 105 67 140
35.4673 -4.0931 0.00667068 108 99 138
28.1026 2.45009 0.00909069 98 66 130
28.176 -1.79923 0.00804759 101 69 134
35.5973 -4.29703 0.00714114 84 115 118
35.5342 0.0961156 0.0112222 106 69 139
35.6021 -0.380658 0.00543551 106 71 139
35.535 3.98593 0.015301 87 129 120
35.7356 -4.228 0.00755611 166 182 201
35.6716 0.0170978 0.00935081 105 67 139
35.6729 3.43538 0.0235959 96 66 128
35.7324 -0.922546 0.00565898 105 69 141
35.717 3.4647 0.0169393 97 67 128
35.8056 -0.582386 0.0058671 104 69 138
36.0078 -4.36357 0.00681979 94 144 126
35.9361 0.0238997 0.00559726 103 65 138
35.8575 4.12708 0.0164909 92 144 122
35.9262 2.32846 0.0102827 102 66 138
36.0037 -2.06897 0.00657222 101 70 138
36.0285 2.2261 0.0102827 104 68 140
36.0704 -1.12237 0.00584162 105 72 143
36.0713 -1.1901 0.0055243 107 71 141
36.0325 2.33201 0.0151216 103 67 139
36.34 -1.731 0.00569979 102 71 139
36.3399 -1.79852 0.00580723 102 70 139
36.3356 2.12375 0.0102827 102 69 140
36.4106 -2.13774 0.00601557 102 71 139
36.5411 4.13869 0.0148445 88 138 116
36.6113 -2.33914 0.00588004 102 71 139
36.5458 -0.0427083 0.00564692 101 67 141
36.6776 -2.40718 0.00731738 103 70 139
37.2845 -3.89253 0.00741275 101 78 134
37.2194 0.697777 0.00505568 107 67 138
37.2899 -3.68646 0.00738538 106 76 135
37.2868 0.698566 0.00522216 105 68 139
37.3552 -3.55427 0.00786594 105 73 136
37.7594 -0.851053 0.00569258 105 69 141
38.1627 1.84026 0.00791508 104 68 142
38.2315 -1.79894 0.00600232 103 70 138
39.1088 -3.41677 0.00742192 105 73 137
39.0415 0.970413 0.00567111 103 67 141
39.1773 1.37528 0.00541264 107 68 143
39.2465 -3.01157 0.00762354 105 73 141
40.3926 1.84767 0.00544144 103 65 140
40.4614 -2.54129 0.00723016 104 70 144
22.5747 -1.93217 0.00851615 96 69 126
17.9814 1.10354 0.0108735 92 65 116
25.6089 -3.82428 0.00618509 99 74 131
25.5462 0.569238 0.00978774 97 67 129
25.6793 -3.35015 0.00724194 98 73 131
25.6127 0.769887 0.00823723 98 68 128
25.6787 -3.41429 0.00787601 98 73 130
25.6073 0.83821 0.00924381 97 67 127
25.6833 0.770259 0.00806208 97 68 128
25.7446 -3.4842 0.00625613 98 73 130
25.7403 0.22227 0.00855752 99 69 129
25.8133 -1.52965 0.00791829 98 69 129
25.8066 2.78826 0.00822161 98 68 127
25.8777 -1.59663 0.00788617 95 69 128
25.8089 2.58692 0.0095653 96 67 125
25.8767 -1.66661 0.00881984 95 70 128
25.8728 2.79186 0.00833 97 68 127
25.9442 -1.72762 0.00845244 94 69 128
25.9467 -1.2554 0.00889949 98 70 130
25.8766 2.85984 0.00994265 98 68 128
25.9465 -1.32751 0.00733988 99 71 132
25.8817 2.93198 0.00947748 98 68 128
25.9453 3.05964 0.00910711 98 68 128
26.0121 -1.32554 0.00750287 100 72 132
25.9458 2.85225 0.010155 100 70 129
26.0099 -1.39348 0.00877899 96 70 129
26.0123 0.0238273 0.00790645 99 69 129
26.0846 -4.15969 0.00625968 114 139 155
26.0106 0.0913186 0.00844468 99 69 130
26.0813 -4.22718 0.00670246 78 127 116
26.0164 -0.377528 0.0072655 97 67 127
25.9518 4.00769 0.00967306 76 133 106
26.0829 -0.583251 0.00963351 98 68 128
26.0105 4.00088 0.00947324 74 130 103
26.0836 -0.516889 0.00783524 98 68 128
26.0078 3.93768 0.0113595 70 126 101
26.1492 -0.5839 0.00847101 98 68 128
26.0779 3.80378 0.0100884 61 89 94
26.1473 -0.518774 0.00815917 98 68 128
26.0871 3.73848 0.00936781 72 80 108
26.0813 3.94316 0.00938609 73 127 107
26.147 -0.445904 0.00850326 99 69 129
26.2185 -0.247279 0.00824724 98 68 128
26.1489 3.86848 0.00997997 77 122 115
26.2182 3.79957 0.00965185 49 77 86
