ply
format ascii 1.0
comment Created by Open3D
element vertex 1235
property double x
property double y
property double z
property uchar red
property uchar green
property uchar blue
end_header
41.9414 -14.4214 0.0107974 251 249 252
44.6432 -0.850711 0.00671178 115 74 152
44.7185 -4.4983 0.00767019 106 158 145
44.78 -8.88598 0.00873049 99 158 128
44.8437 -13.0092 0.00960149 255 249 253
31.1487 3.80707 0.00737179 56 77 90
31.2778 -5.57841 0.00627595 80 144 110
31.3538 -10.1004 0.00779431 88 147 110
31.2126 -1.32658 0.00568944 100 69 137
42.8228 -2.47329 0.00691072 109 73 149
42.9619 -10.9771 0.00933673 238 215 243
43.022 -15.2287 0.0114172 251 249 252
31.145 -10.5745 0.00974987 83 147 112
30.9411 2.58904 0.00658664 95 63 128
31.0113 -1.79742 0.00619686 98 67 135
31.0746 -6.18603 0.00685828 84 152 114
37.286 -0.313333 0.0059708 104 68 142
37.358 -4.70176 0.00749739 90 155 117
37.4914 -13.8168 0.0107084 251 249 250
37.4288 -9.42398 0.00973073 77 141 82
40.9335 -8.75027 0.0088502 29 57 45
41.0043 -13.0013 0.0120589 251 249 252
41.0681 -13.0682 0.0109805 251 249 252
40.9337 0.0905049 0.00615265 109 73 147
41.0017 -4.29852 0.007963 91 126 130
41.0668 -8.67869 0.008796 104 150 120
41.1319 -13.0745 0.0105977 251 249 252
32.8994 -1.79864 0.0056746 100 69 136
33.0373 -10.3048 0.0104258 89 146 111
32.8314 2.45135 0.00669167 98 66 131
32.9698 -6.05143 0.00676181 83 147 111
49.6242 -18.1715 0.236749 255 248 255
40.9329 -12.6698 0.0108168 251 249 252
55.6504 -18.6744 0.727791 243 207 255
41.0026 3.33215 0.00463095 103 71 144
41.2666 -13.7468 0.0118082 251 249 252
41.1337 -5.44521 0.00897594 84 159 116
41.2021 -9.49105 0.00892586 79 138 90
32.8299 2.65636 0.00600104 98 66 133
33.0349 -10.5079 0.00981748 86 147 110
32.9673 -6.11626 0.0086918 83 149 113
32.9001 -1.73147 0.00535957 102 70 137
32.8961 2.65885 0.0070989 98 66 131
33.1035 -10.1687 0.00906797 85 145 109
33.0327 -6.11589 0.00673619 84 150 114
32.9697 -1.86681 0.0055597 100 68 135
33.0376 2.7923 0.00651514 98 66 131
33.1041 -1.80393 0.00551618 101 69 136
33.1719 -6.04978 0.00754037 86 150 113
33.2377 -10.5767 0.0075337 88 148 112
54.633 -19.3945 1.0423 247 209 255
55.3106 -19.1062 0.916162 253 219 255
40.9327 -8.14126 0.00989936 85 155 105
41.0688 -4.43247 0.00741764 87 140 121
41.1357 -8.68494 0.00882908 102 150 120
41.2008 -12.7348 0.0109332 251 249 252
54.1621 -19.5432 1.10805 246 207 254
54.433 -19.5365 1.1051 244 205 253
55.0369 -19.3489 1.02345 249 212 253
43.2273 2.25259 0.00568524 107 68 143
43.4292 -10.7063 0.0092451 209 205 219
43.5071 -14.8216 0.0112269 251 249 252
45.6597 0.429353 0.00621933 115 75 153
45.7261 -3.95976 0.00735475 111 78 147
46.5994 -9.55913 0.00884277 111 176 145
46.6676 -13.949 0.0105879 251 249 252
54.1589 -19.5647 1.12419 247 206 252
55.0388 -19.3985 1.04396 183 146 190
43.9039 -2.07015 0.0080253 113 73 151
43.9689 -6.32239 0.00803674 101 168 135
44.0371 -10.8475 0.00929383 209 209 217
44.1071 -15.0921 0.0103447 251 249 252
54.4354 -19.6864 1.17125 249 207 254
54.5658 -19.4844 1.0822 244 204 254
40.9399 -11.7162 0.01064 254 247 255
41.7456 -3.89033 0.00802919 101 73 132
41.8769 -12.6659 0.0115486 251 249 252
42.6864 -0.988961 0.00706077 106 67 146
42.7584 -5.37301 0.00854938 95 167 129
42.8211 -9.29252 0.00906625 27 44 36
45.2512 1.3059 0.00612187 115 72 152
45.3893 -7.19899 0.00819415 98 161 130
46.8028 -1.39463 0.0070932 119 77 153
46.8683 -5.03733 0.00882639 110 87 143
46.9474 -9.42372 0.00866721 103 168 136
47.0095 -13.5415 0.0100363 255 243 255
32.5649 -7.19679 0.0073523 20 26 38
32.6233 -11.4506 0.010848 81 145 106
32.4258 1.91183 0.00625257 101 66 134
32.4968 -2.33796 0.00561349 100 68 135
55.2472 -19.4297 1.05775 184 149 191
55.4466 -19.2886 0.99562 204 173 213
43.9015 1.84662 0.00595588 111 69 145
43.9699 -2.40898 0.00695609 114 71 150
44.0357 -6.6593 0.00822386 97 167 133
44.1728 -14.6892 0.0116559 251 249 252
43.9035 2.31992 0.00581643 113 71 147
44.0361 -6.46022 0.00954652 98 167 136
44.1082 -10.8463 0.00925347 208 209 218
44.1785 -14.7575 0.0105924 251 249 252
44.2403 2.59078 0.0074308 110 68 144
44.3079 -1.53061 0.00688595 115 72 152
44.3749 -5.91566 0.00789134 103 168 138
44.4387 -10.6426 0.00979282 79 118 102
44.5063 -15.024 0.0110876 251 249 252
44.982 0.698126 0.00616576 112 74 149
45.0503 -3.69157 0.00848676 107 76 144
45.1201 -8.07414 0.00910311 94 159 129
45.2523 -11.5167 0.0100447 216 189 224
45.1863 -12.4633 0.010001 237 205 244
45.3208 -15.9022 0.0113655 251 249 252
54.5594 -19.5661 1.12327 244 205 252
40.9323 -11.1831 0.0110657 248 225 249
40.9348 -11.2471 0.0106143 248 228 249
55.0397 -19.6215 1.14346 243 205 252
50.3115 -18.3301 0.367442 254 232 255
44.5767 -1.32634 0.00669066 115 72 152
44.7151 -10.4397 0.00911789 100 156 130
44.7862 -14.8262 0.0111966 251 249 252
55.1786 -19.6845 1.17022 243 206 253
55.247 -19.5701 1.12322 216 180 228
56.5277 -19.3972 1.04299 120 92 141
55.3091 -19.5742 1.12163 113 77 123
55.5127 -19.6856 1.17059 199 166 213
56.6591 -19.3468 1.02156 122 94 141
45.138 3.76143 0.0102213 115 84 152
45.1872 -0.515216 0.00694838 117 76 154
45.2506 -6.18067 0.00813397 98 162 135
45.3217 -10.4429 0.0103281 95 149 117
45.39 -14.9612 0.0109561 251 249 252
45.6584 1.03613 0.00606702 114 75 156
45.793 -6.99585 0.00816462 101 165 134
45.8583 -11.2441 0.00894068 128 143 138
45.9297 -15.5045 0.011534 251 249 252
46.5382 -12.261 0.00987344 233 201 238
46.6031 -16.1765 0.0102202 251 249 252
32.2942 1.37163 0.00835647 101 65 135
32.2205 -10.2391 0.00966892 88 150 113
32.4952 -11.6535 0.0107671 83 144 108
32.1569 -5.98587 0.00753807 91 157 122
32.0904 -1.46163 0.00648881 100 67 136
32.0206 2.79325 0.00666799 96 66 130
32.3592 -2.87915 0.00577939 98 67 135
32.4276 -7.39829 0.00815946 92 152 119
56.7565 -19.223 0.989942 128 98 146
43.3626 0.227206 0.00622716 107 69 144
43.4268 -4.0281 0.0075341 96 80 119
43.4948 -8.54393 0.008826 91 156 126
43.5637 -12.7998 0.0105014 253 248 253
48.22 -17.7264 0.0432723 251 249 250
48.2882 -17.7969 0.0568294 251 249 250
56.3215 -19.4827 1.08077 124 95 143
56.5909 -19.5359 1.10423 124 96 142
41.7414 1.84616 0.00607821 105 67 142
41.8092 -2.40538 0.00679985 108 72 146
41.8752 -6.65684 0.00834133 93 164 120
42.0146 -13.6057 0.00981081 251 249 252
41.9387 -10.9146 0.00995498 249 226 248
48.4253 -17.7293 0.0531447 251 250 248
32.0946 -9.15708 0.00952445 84 148 112
31.9545 -0.0432449 0.00622469 102 70 137
32.0211 -4.90106 0.0064105 79 144 109
40.9313 -5.51213 0.00763547 88 160 120
41.0658 -14.0139 0.0110879 251 249 252
41.0021 -9.76535 0.0112679 72 132 81
43.0254 -2.27185 0.00692705 110 72 147
43.09 -7.67411 0.0092328 92 157 125
43.1607 -11.9229 0.0105578 205 181 209
45.3243 -14.089 0.0110742 251 249 252
55.2874 -19.8452 1.26055 246 206 253
56.3257 -19.6183 1.14138 125 96 142
43.8335 0.698271 0.00629508 112 69 149
43.9024 -4.02422 0.00753552 104 83 129
44.0357 -12.5274 0.0112784 240 231 242
48.8328 -17.4763 0.0415643 251 249 252
48.8295 -17.5314 0.0436757 251 249 252
56.7951 -19.6177 1.14012 122 96 138
44.4418 0.293857 0.00639471 114 71 151
44.5105 -4.09613 0.0075705 134 125 168
44.5756 -8.48021 0.00872207 95 152 123
44.7177 -16.2421 0.0112468 251 249 252
44.6438 -12.8702 0.0107979 254 247 254
49.0347 -17.526 0.052678 251 249 252
55.1024 -15.0893 0.00860294 255 233 255
55.4467 -19.9008 1.26163 246 207 252
56.6611 -19.6855 1.17022 123 96 141
56.7292 -19.5757 1.12187 123 96 140
33.6453 2.52225 0.00581164 97 65 132
33.8463 -10.2374 0.00922846 90 149 113
33.7781 -5.98493 0.00757833 82 148 108
33.7103 -1.73049 0.00532251 99 67 134
34.4509 1.84627 0.00525613 98 64 134
34.586 -6.65942 0.00734175 90 155 113
34.6529 -11.0453 0.00983538 94 151 108
34.5206 -2.54016 0.0060905 103 71 138
45.7224 -9.35463 0.00930131 92 150 125
45.7917 -13.8119 0.0103317 251 249 252
49.23 -17.3528 0.0424837 251 249 252
55.5821 -18.0675 0.477866 195 175 231
31.1439 -6.59158 0.00696828 93 150 118
31.0092 1.91171 0.00776534 103 68 134
31.0775 -2.33642 0.00606838 100 68 135
56.7217 -19.7184 1.18573 122 95 138
42.4849 -5.10474 0.00833361 93 163 126
49.5717 -17.0562 0.0194545 250 250 252
49.5772 -17.1167 0.0245463 251 249 252
42.8203 -1.66418 0.00672984 107 70 146
43.0202 -14.4239 0.0111719 251 249 252
44.3734 -15.7017 0.0098209 251 249 252
44.3058 -11.4511 0.0110435 246 223 249
49.8193 -17.1121 0.0385408 250 249 254
49.8445 -17.1968 0.0429111 251 249 254
49.839 -17.2527 0.0511177 251 249 254
40.9349 -3.61904 0.00718249 105 73 138
41.0695 -12.1257 0.0109261 251 249 252
40.9999 0.495977 0.00587822 109 68 146
41.0697 -3.75567 0.00708581 104 72 137
41.1987 -12.3307 0.0103657 251 249 252
41.1365 -8.01001 0.00981575 86 155 108
49.641 -8.21095 0.00812768 110 92 142
49.4401 -9.28641 0.00836697 135 179 157
49.7015 -12.3311 0.00922951 225 227 237
49.4955 -13.68 0.00838739 232 202 236
49.7697 -16.7131 0.00950977 250 250 252
50.0245 -17.048 0.0389848 250 247 254
50.0451 -17.1202 0.0415904 250 249 255
41.003 -11.7846 0.0107168 254 247 255
40.9345 -7.5369 0.0106916 92 165 112
41.1406 -14.5481 0.0113931 251 249 252
41.0667 -10.166 0.00928866 55 76 57
40.9345 -3.08236 0.00758608 108 72 144
41.0712 -11.5864 0.0107606 255 243 255
41.944 1.23809 0.00583671 109 71 146
42.1511 -12.6668 0.0109193 251 249 252
42.0837 -8.41897 0.0110259 88 155 121
43.0248 -9.36165 0.0103681 26 44 34
44.5101 1.23994 0.00603059 113 68 149
44.6413 -7.26503 0.00968493 98 163 132
44.786 -15.298 0.0106559 251 249 252
44.7154 -11.0452 0.0110498 224 225 253
47.4824 -5.44638 0.00831706 110 86 148
47.6088 -13.9505 0.00961093 252 250 255
48.0174 -5.77708 0.00827845 114 81 151
48.1533 -14.552 0.0100916 251 249 254
49.0282 -11.1786 0.00954584 67 99 86
49.0366 -11.1102 0.0102441 88 118 104
49.1093 -15.4993 0.00948634 251 249 252
49.1012 -11.1794 0.00908449 79 106 101
49.1739 -15.5687 0.00967181 251 249 252
49.5665 -15.9051 0.0102324 251 249 252
50.4393 -16.9186 0.0398958 250 247 254
41.0024 -5.84795 0.00878698 88 164 121
41.0672 -10.368 0.0099118 241 239 248
41.1377 -14.624 0.011373 251 249 252
43.2956 3.14729 0.0102824 111 70 146
43.3611 -0.786557 0.00652392 108 71 149
43.565 -13.9541 0.00981215 251 249 252
43.0918 -0.178841 0.00634453 108 70 145
43.2977 -13.3387 0.011061 251 249 252
43.2282 -8.95539 0.0100991 91 149 122
45.3199 -2.40429 0.007097 114 72 148
45.3907 -6.78838 0.0088613 98 165 132
45.5188 -15.6426 0.0098859 251 249 252
45.4554 -11.1805 0.0100089 152 152 169
49.7066 -6.79333 0.00873827 117 83 151
49.7725 -11.1845 0.00890207 51 63 66
49.8398 -15.6353 0.0100065 251 249 252
50.3793 -7.80529 0.0084592 119 88 146
50.5134 -16.3096 0.00955956 251 248 255
33.1034 -3.28265 0.00688493 100 69 135
33.1719 -7.53618 0.00768079 87 146 110
33.2403 -11.7904 0.0100609 97 157 120
33.0348 1.03684 0.00590644 100 68 135
38.6377 0.833998 0.00541405 103 67 141
38.7044 -3.55553 0.00685359 106 74 139
38.9096 -13.0017 0.0113957 251 249 252
38.8426 -8.61373 0.00988717 76 130 84
38.7735 -4.22841 0.00842287 160 181 200
42.2164 0.968295 0.00640977 109 68 147
42.2837 -3.48842 0.00731739 103 70 139
42.4136 -12.2609 0.00959492 254 249 255
49.5684 -15.0928 0.00979437 251 249 254
50.8566 -11.9916 0.0101089 142 189 143
41.0674 -2.13522 0.00666091 106 72 146
41.2722 -14.9609 0.0109146 251 249 252
41.1987 -10.711 0.0107131 249 225 251
42.9567 2.72501 0.00584964 105 69 143
43.0263 -1.66093 0.00726613 110 70 146
43.1563 -12.6646 0.0110744 253 249 254
42.961 2.65667 0.00533343 105 68 143
43.0258 -1.59358 0.00671708 108 70 147
43.1659 -12.5982 0.0105868 254 248 255
43.0907 -8.34502 0.0094136 91 154 123
43.0258 2.65796 0.00517899 106 68 143
43.0941 -3.95643 0.00735205 104 78 133
43.1592 -8.34234 0.00947339 91 154 123
44.2499 2.96101 0.0213381 110 72 147
44.3084 -1.39534 0.00727057 114 71 151
44.3754 -5.77936 0.00787115 100 168 137
44.5063 -14.0797 0.0109651 251 249 252
44.4421 -9.69205 0.00971892 35 58 52
46.4735 -11.6556 0.0100417 240 222 241
46.5401 -16.048 0.0106534 251 249 252
48.2192 -9.15699 0.00859011 106 167 133
48.341 -17.6365 0.0349126 251 249 250
50.5868 -8.68198 0.00898903 120 91 147
50.652 -11.517 0.00866059 228 246 252
50.7244 -15.9109 0.00885523 254 249 255
51.5297 -17.1238 0.129141 245 243 255
31.6847 -7.39923 0.00841319 85 144 112
31.5513 1.37451 0.00671072 101 66 132
31.6178 -3.14742 0.00604115 98 69 135
31.7521 -10.9117 0.00843965 82 142 109
48.0848 -17.5183 0.0164024 251 249 250
55.3803 -19.5429 1.10764 70 34 80
34.3861 -3.21545 0.00662833 102 70 135
34.3181 1.03746 0.00626635 102 68 137
43.4987 1.37545 0.00604176 109 71 146
43.5683 -3.01609 0.00769935 107 71 143
51.1226 -12.1955 0.00877869 145 187 148
51.1921 -15.8383 0.00902983 253 248 254
41.0702 -14.0862 0.00999767 251 249 252
40.9343 -5.30635 0.00823806 87 160 117
45.3205 -14.0264 0.0103834 251 249 252
45.5474 2.94258 0.0102823 116 75 151
45.5894 -1.32719 0.00768933 113 72 150
45.7877 -15.2327 0.0107766 251 249 252
45.7208 -10.0962 0.009837 30 59 57
45.9989 -1.39198 0.00666785 114 75 156
46.1988 -14.7551 0.0102562 251 249 252
46.1312 -10.502 0.0101102 114 163 131
48.361 -16.919 0.00910844 251 249 252
48.2983 -12.6651 0.00930031 240 203 247
48.7635 -8.95071 0.00970964 115 168 142
48.8272 -13.2034 0.00993773 188 151 194
49.9744 -10.1689 0.00951872 121 174 144
50.0484 -14.4207 0.00888239 252 241 254
31.8892 1.98197 0.00577992 102 67 135
32.0223 -6.86041 0.00790862 90 148 115
31.9555 -2.40413 0.00602191 100 68 135
32.0923 -11.2484 0.00918596 85 147 108
42.3519 -14.622 0.0120182 251 249 252
42.4854 2.45546 0.00562971 104 68 142
42.5528 -2.40344 0.00707009 109 73 147
42.7534 -15.167 0.0118134 251 249 252
42.6191 -6.66007 0.00949973 97 164 130
45.2516 -0.719785 0.00713408 115 74 153
45.3893 -9.49166 0.00934875 97 151 127
45.3853 -5.2407 0.00771634 94 160 132
45.5203 -14.0846 0.00960574 251 249 252
45.2468 3.60368 0.0212314 114 80 154
45.3208 -0.78561 0.00654221 114 73 152
45.3874 -5.17554 0.00831266 97 156 134
45.5213 -14.0162 0.0117622 251 249 252
48.9644 -5.17455 0.00734333 106 82 144
49.0335 -8.82502 0.0083761 119 162 145
49.1056 -13.2064 0.00955267 248 211 255
49.7691 -13.8126 0.00968934 245 218 251
49.7083 -9.55916 0.00956866 130 180 153
41.8103 3.06283 0.00572697 106 68 143
41.8764 -1.32564 0.00666213 106 70 144
42.0163 -10.1663 0.0104616 94 141 112
42.0818 -14.5527 0.0111928 251 249 252
41.948 -5.71372 0.00916078 84 155 117
41.8776 2.79239 0.00540453 108 70 143
42.1526 -14.2834 0.0100209 251 249 252
42.0143 -5.77768 0.00920955 88 158 121
47.5445 -15.7691 0.010994 251 249 252
49.8369 -13.6108 0.0102337 255 223 254
44.4426 0.766569 0.00665013 115 72 152
44.6443 -12.261 0.00941354 254 229 254
46.67 -1.79605 0.00780213 118 77 155
46.7393 -5.91526 0.0084909 92 116 126
46.8066 -10.3038 0.00946897 32 50 53
48.8947 -8.1428 0.00870703 85 102 112
49.0344 -16.7144 0.00934276 251 249 253
49.7048 -8.8213 0.00820956 17 22 50
49.7688 -13.2069 0.00909402 191 154 195
51.0614 -10.2313 0.00830768 25 31 43
51.5325 -10.7734 0.00816163 44 40 63
51.6027 -15.0306 0.00841801 255 243 255
52.1366 -11.3831 0.00829998 61 58 71
43.3635 -2.33685 0.00803405 111 73 148
43.5027 -10.8435 0.00932417 227 217 242
43.5652 -15.0957 0.0116349 251 249 252
49.1673 -17.6641 0.0843368 253 248 253
57.3396 -18.0001 0.452269 254 242 252
37.4272 -4.22868 0.00799322 164 183 200
37.5649 -13.0039 0.00953006 252 250 251
37.4925 -8.47946 0.010174 89 159 98
37.3539 -0.17789 0.00575455 105 67 142
44.781 0.970255 0.00610417 117 76 155
44.9859 -12.2591 0.00999321 252 223 254
45.0571 -16.645 0.00974365 251 249 252
44.9171 -7.80147 0.0104697 93 156 125
45.8588 -0.0432249 0.00646102 116 75 153
45.9259 -4.56737 0.00853849 100 88 134
47.4093 -5.98223 0.00786232 111 99 149
41.3388 0.428249 0.0064757 108 69 148
41.5472 -12.8007 0.0111011 251 249 252
41.4742 -8.41601 0.0100075 85 149 112
41.4074 -3.9581 0.00889842 101 75 133
43.9033 1.91535 0.00666162 113 71 147
43.97 -2.4752 0.00699739 114 73 149
44.0376 -6.58833 0.00978887 98 168 134
44.4427 1.64294 0.00602145 109 73 147
44.5104 -2.74449 0.00818404 110 72 145
44.7129 -15.4384 0.0111509 251 249 252
44.6444 -11.5174 0.0100328 247 220 251
45.7938 -12.7357 0.00932824 248 219 252
45.7261 -8.2824 0.010934 91 156 126
47.6124 -5.77963 0.00782374 112 90 149
47.7544 -14.6263 0.0102828 251 249 254
47.6814 -10.2386 0.0107229 26 34 37
48.8309 -11.3846 0.0106233 114 150 117
49.8464 -8.27773 0.00867182 110 89 145
49.971 -16.7862 0.0120752 249 248 253
49.9786 -8.21021 0.00860206 112 86 145
50.0446 -12.6002 0.00972953 209 197 221
41.1372 -14.8929 0.0129876 251 249 252
40.9335 -1.86618 0.00671468 108 74 148
38.3827 3.76143 0.0102216 94 77 128
38.5729 -9.76221 0.00878103 61 107 69
38.6436 -13.8748 0.00993962 251 249 252
38.5014 -5.37456 0.00869982 90 162 112
38.4336 -0.651667 0.00697656 105 69 143
42.215 -0.111955 0.00720323 108 70 147
42.4168 -13.3378 0.0111127 251 249 252
42.3501 -8.95359 0.0106372 95 149 120
43.8293 -10.3696 0.00918939 98 151 125
43.9026 -14.5559 0.00977883 251 249 252
44.1052 2.3872 0.00570409 111 69 145
44.1711 -2.07126 0.0069086 115 72 151
44.3729 -15.226 0.00966768 251 249 252
44.2384 -6.45888 0.00887115 99 169 136
44.3698 -10.8447 0.00915353 145 157 158
44.4408 -15.434 0.0106981 251 249 252
44.8465 -2.94487 0.00711352 111 73 146
44.9816 -11.7852 0.0103784 254 227 255
45.0523 -16.044 0.0102913 251 249 252
44.9176 -7.19748 0.00983175 98 162 130
45.322 1.10624 0.00617953 117 76 155
45.3879 -3.28382 0.00719034 111 74 144
45.5201 -11.5837 0.0104136 232 202 237
46.0636 0.361991 0.0067683 116 73 151
46.1312 -3.89127 0.00742427 113 80 151
46.1935 -8.41392 0.0093388 98 162 132
48.8972 -15.4991 0.00999642 251 249 252
48.8317 -11.1067 0.0107951 84 120 106
49.1727 -15.4272 0.00852874 251 249 252
49.1011 -11.3122 0.0105305 179 206 189
49.4974 -16.1089 0.00956882 251 249 254
51.0606 -9.0214 0.00810816 126 96 159
52.4794 -14.6949 0.00822272 243 214 250
41.2019 -5.04199 0.00915099 87 155 116
41.2691 -9.29177 0.0110586 82 140 92
41.0652 4.07263 0.01545 104 138 144
41.1337 -0.177905 0.00698983 108 70 145
41.335 -13.5459 0.0105183 251 249 252
44.5105 2.18472 0.00654547 114 72 148
44.5793 -2.3359 0.00799945 113 70 149
44.7161 -11.7168 0.00929919 252 226 253
44.788 -15.9678 0.0106633 251 249 252
47.0755 -4.50072 0.00813813 114 78 150
47.1446 -9.09089 0.0106051 101 167 131
47.5462 -5.17528 0.0081418 112 81 149
47.6854 -14.018 0.0102075 252 250 255
47.614 -9.55987 0.0107174 110 171 138
48.4945 -6.11842 0.00766395 109 80 147
48.6348 -14.8969 0.00893524 251 249 252
49.1027 -6.99354 0.0077935 110 83 142
50.1782 -7.60338 0.00781942 123 84 153
50.3161 -16.3786 0.00974233 251 248 255
50.2448 -12.122 0.0101196 120 174 143
52.8143 -14.7609 0.0087934 242 216 248
41.1383 -15.2899 0.0102048 252 250 253
41.0664 -11.0463 0.0100019 238 214 238
40.9317 -2.54028 0.00732264 105 71 147
41.8722 -7.80269 0.00928715 88 161 118
44.6455 -1.19115 0.00666312 114 71 151
44.8414 -15.0924 0.0116469 251 249 252
48.1532 -9.76472 0.0108226 103 163 131
48.8258 -14.7632 0.00880611 251 249 254
49.1731 -14.9647 0.0100321 251 249 252
49.3009 -10.9112 0.00973062 20 31 34
50.2462 -7.67358 0.00901345 121 86 152
50.3864 -16.2414 0.00823037 251 248 255
50.7178 -8.14048 0.00882196 115 87 138
50.856 -16.6547 0.0207491 251 248 255
50.7847 -12.3977 0.00943659 141 185 149
51.0553 -8.54692 0.00786109 114 92 138
51.1264 -12.7992 0.00982682 220 205 238
52.9448 -14.5611 0.010446 241 217 245
43.9677 3.39671 0.0215124 111 73 148
44.0343 -1.12241 0.00678189 112 74 149
44.103 -5.37694 0.00857275 99 173 138
45.0501 2.3208 0.00606796 116 74 148
47.6164 -4.9027 0.00743097 112 79 150
47.7572 -13.2107 0.00986068 236 199 243
47.6779 -8.95209 0.00926181 104 168 133
48.2902 -5.37483 0.00753936 112 78 152
48.414 -13.8797 0.00979499 238 220 239
32.3573 2.79085 0.0074943 98 66 133
32.4271 -1.72908 0.00629697 99 68 136
32.5596 -10.0365 0.00918317 82 143 109
32.4953 -5.98374 0.00687194 88 154 117
50.5876 -11.585 0.0103789 144 176 171
44.24 -9.29265 0.00948931 96 155 129
44.3058 -13.4099 0.0103392 251 249 252
44.1747 -4.90159 0.00891928 100 167 136
44.5777 -0.921695 0.0065691 113 72 150
44.716 -8.68128 0.00874265 96 156 125
44.6433 -5.30912 0.00956231 100 166 135
48.0203 -4.42739 0.00829807 114 76 151
48.1563 -13.2043 0.00878472 232 190 238
48.2228 -17.1219 0.00903295 251 249 252
54.4315 -15.1559 0.0095725 251 228 254
42.0123 1.98245 0.00559712 105 67 142
42.2178 -11.1794 0.00936219 253 229 255
42.2806 -15.0893 0.0101456 251 249 252
42.1514 -6.79295 0.0095253 97 166 122
44.0363 -0.177298 0.00638837 114 72 148
44.2395 -12.4666 0.0113308 223 208 227
44.1058 -4.42959 0.00828601 107 160 148
45.2552 -10.0995 0.00891877 106 154 132
45.1852 -13.8807 0.0107842 251 249 252
45.3242 -14.355 0.011033 251 249 252
45.0454 -5.37616 0.00859397 96 165 134
45.5234 2.52287 0.00652492 118 76 150
45.5912 -1.73041 0.00676407 115 73 150
45.725 -10.2369 0.00894875 118 161 142
45.5891 2.72505 0.00564016 115 73 147
45.7931 -10.6351 0.00897364 107 163 133
45.8598 -14.8933 0.0104953 251 249 252
45.7266 -6.05333 0.00880588 98 156 134
46.2002 -2.33596 0.00689098 116 74 151
46.3314 -11.455 0.00908431 218 222 236
46.2671 -6.59145 0.00890381 105 163 139
46.1992 -2.26932 0.00789823 117 75 152
46.3299 -11.3842 0.0101003 143 158 159
46.3952 -15.7628 0.0094585 251 249 252
46.2679 -6.66006 0.00891554 105 164 140
46.4684 -2.47353 0.00707473 115 75 147
46.6038 -10.7782 0.0088775 118 170 139
46.6693 -15.1661 0.011681 251 249 252
46.5374 -6.86424 0.00886201 110 166 141
49.9664 -14.7549 0.0085155 252 250 255
49.9119 -10.2387 0.0103897 123 174 143
50.6514 -11.0407 0.0098086 81 79 93
53.5553 -13.9508 0.00983315 242 211 243
54.4309 -14.7576 0.00934958 235 209 236
31.5528 -1.39213 0.00634071 101 70 138
31.4856 2.99109 0.00765695 96 66 128
31.6846 -10.1684 0.00848257 87 147 110
31.6197 -5.77843 0.00602048 85 155 115
40.1905 -4.43043 0.00716654 93 152 124
40.2544 -8.6841 0.00879495 9 24 24
40.318 -12.9325 0.0104043 251 249 252
40.123 -0.176636 0.00679737 107 69 144
41.9459 -10.5723 0.00933862 242 228 251
42.0131 -13.9488 0.0104524 251 249 252
41.8099 -1.80266 0.00722546 107 70 147
42.3488 1.78004 0.00650235 108 67 143
42.6161 -14.7652 0.00998924 251 249 252
42.5557 -10.5071 0.0105587 223 223 231
43.9047 -8.14255 0.00886358 94 153 123
43.8313 -3.82496 0.00817108 110 79 139
43.9711 0.360441 0.00625816 112 71 149
44.1767 -12.8674 0.010186 254 247 254
44.0334 -4.02469 0.00827358 103 83 129
44.8309 3.24964 0.0102823 110 73 147
44.9159 -0.989337 0.00660914 113 72 151
45.055 -9.28941 0.00881093 100 155 133
44.9838 -5.04168 0.0083764 108 168 146
50.9853 -15.2309 0.00810625 252 250 255
50.9234 -10.9753 0.00949143 34 36 55
51.5998 -15.8345 0.00796431 251 249 254
51.5328 -11.5875 0.00921446 173 197 185
52.3457 -12.3975 0.0104134 48 46 59
52.8856 -12.9388 0.0092769 145 118 149
53.6969 -13.7452 0.00981214 251 220 252
45.4451 3.24964 0.0102823 115 74 152
45.5215 -0.92246 0.0067037 113 72 151
45.7221 -13.8129 0.00981298 251 249 252
45.7265 -0.380801 0.00642015 115 74 152
45.9293 -14.2796 0.0102069 251 249 252
45.7957 -5.50875 0.00988744 109 161 148
46.534 -1.59612 0.00722033 117 76 151
46.7378 -14.8193 0.00914111 251 249 252
46.6013 -6.32018 0.00866516 110 156 140
47.0752 -10.9782 0.00880123 23 70 38
47.1388 -15.5619 0.00966291 251 249 252
47.9578 -16.6511 0.00917798 251 249 252
47.8864 -11.9227 0.00988729 210 201 218
47.8192 -7.53675 0.00959953 119 164 144
49.9701 -13.7432 0.00965738 248 217 251
49.9065 -9.62331 0.00979879 136 172 158
50.7224 -14.6245 0.00830694 251 239 253
50.9879 -15.0247 0.0091614 253 251 255
51.9974 -16.3074 0.0229192 255 247 255
52.0068 -16.2422 0.0167281 254 246 255
54.2341 -13.9494 0.0104256 232 203 234
49.5183 -17.9541 0.175048 254 247 255
36.4103 -12.6032 0.0108436 115 161 105
36.2773 -4.29666 0.00823102 96 127 131
36.2102 0.0911116 0.00544417 103 67 140
38.1648 -1.72934 0.00662708 102 69 138
38.2298 -6.85874 0.00806333 92 161 106
38.2931 -11.1088 0.0101893 251 249 251
38.0932 2.52661 0.0193718 100 66 140
43.0923 1.84738 0.00588858 108 66 142
43.3599 -15.775 0.0101785 251 249 252
43.2306 -6.66157 0.00938593 92 164 127
43.1585 -2.53849 0.00898364 106 69 147
45.591 -0.514994 0.00646424 115 74 153
45.7241 -9.29072 0.00918511 91 149 124
45.7874 -13.8816 0.00952852 251 249 252
47.482 -11.1796 0.00874466 104 153 122
47.5488 -15.297 0.0109174 251 249 254
47.7526 -2.67667 0.0067849 109 80 134
47.8827 -11.4511 0.00913544 103 157 123
47.9583 -14.9611 0.00898729 251 249 252
50.4494 -14.0152 0.00840569 236 204 243
50.3836 -9.76195 0.0100965 101 117 123
51.4618 -14.6875 0.00813949 242 215 245
42.8913 2.11653 0.00580447 106 70 144
43.0266 -6.38666 0.0079883 98 168 131
43.0857 -12.194 0.0106918 235 222 237
42.96 -1.99973 0.00793253 107 69 144
44.846 0.765996 0.00625726 115 74 152
45.0497 -12.1959 0.0103806 245 210 250
44.9866 -7.80784 0.00925331 93 156 125
44.916 -3.61816 0.00858532 107 76 143
44.9845 0.495022 0.00621956 113 75 150
45.2525 -11.722 0.0101866 255 226 255
45.1862 -12.2628 0.00996164 218 186 223
45.3199 -15.9752 0.00992144 251 249 252
45.1201 -8.00567 0.00936313 96 159 130
45.0488 -3.75571 0.00866031 108 76 144
49.1694 -11.9238 0.0083982 124 175 144
49.2422 -16.313 0.00897953 251 249 253
49.31 -16.452 0.00990726 251 250 251
50.1769 -8.88545 0.0106518 117 107 147
51.4616 -10.1673 0.0109797 116 103 131
53.4857 -12.1997 0.0105422 148 128 155
41.2016 -12.1946 0.0102132 251 249 252
42.8906 -1.32728 0.00730583 107 71 145
44.9828 -15.9763 0.0119108 251 249 252
44.8453 -7.39888 0.00973914 98 163 133
44.7798 -3.1447 0.00778693 109 71 144
45.2507 0.566116 0.00719249 112 76 150
45.5214 -16.5195 0.01149 251 249 252
45.3845 -8.21256 0.00928467 92 157 127
45.3254 -3.69166 0.00912301 107 76 144
46.1333 -8.81866 0.00872168 100 165 131
46.1959 -13.205 0.00943276 253 239 255
46.0644 -4.43082 0.00984967 106 84 140
46.6677 -9.29079 0.00865231 109 174 142
46.6034 -5.03571 0.00896011 103 85 135
48.6981 -15.7056 0.00924894 251 249 254
48.564 -6.92824 0.00902876 109 82 141
52.2677 -15.8353 0.00800061 255 250 254
53.0877 -15.9713 0.00762725 254 248 252
53.4806 -16.0376 0.00871365 255 248 255
32.4951 -8.6886 0.00912322 90 147 112
32.3578 0.0918265 0.00678175 101 69 136
32.4271 -4.43063 0.00639359 78 138 110
31.549 2.04316 0.00798414 101 66 134
31.6865 -6.45461 0.00729602 88 159 119
31.619 -2.20213 0.00550318 98 67 135
31.75 -11.8606 0.00841226 147 137 208
34.9252 -1.32627 0.00562785 104 68 139
34.9912 -5.64781 0.00667448 89 156 115
35.0604 -9.89543 0.00838958 85 141 102
34.8557 2.92574 0.00605786 97 65 134
51.2655 -13.6079 0.00828513 252 218 251
51.1946 -9.22242 0.0100353 123 93 154
51.9374 -14.2826 0.00774179 246 215 249
51.8669 -9.89733 0.00963417 120 99 140
54.0901 -16.4435 0.0345119 200 185 224
43.0267 -5.03594 0.00766058 97 169 133
43.0915 -13.5407 0.00985554 251 249 252
42.9587 -0.651704 0.00752101 106 69 146
44.1051 2.11738 0.00656448 112 70 146
44.3058 -10.5753 0.00920523 95 141 121
44.3698 -14.9632 0.0102444 251 249 252
46.5351 -0.380395 0.00679442 113 75 152
46.7373 -13.0729 0.0101752 239 212 247
48.8978 -14.8912 0.00904153 251 249 252
48.7606 -6.38808 0.00831397 107 81 146
49.0998 -6.79224 0.00910283 112 83 149
49.3061 -10.9746 0.00975097 86 100 87
49.2376 -6.92855 0.0091679 112 83 144
50.8529 -12.7284 0.00906622 199 190 216
50.9224 -16.781 0.033996 251 248 255
53.9647 -15.8389 0.00704496 163 151 174
54.0974 -15.9753 0.00767698 255 247 255
42.15 -3.88992 0.00808389 101 71 133
42.2187 -8.14174 0.00859092 92 158 122
42.0801 0.631551 0.00647255 108 69 148
43.4364 -13.2699 0.0102281 251 249 252
43.3617 -8.88375 0.00948826 93 152 124
43.2288 -0.582895 0.00749668 107 70 147
46.4672 0.431326 0.0065937 114 75 147
46.6007 -8.41331 0.00922813 106 169 138
46.6688 -12.6612 0.00971292 218 185 232
46.7401 -17.1816 0.00959192 251 249 252
46.5329 -3.82629 0.00791326 114 78 150
47.683 -8.88634 0.00836809 102 167 132
47.7527 -13.2729 0.0103294 234 202 241
49.4315 -15.3669 0.0086642 251 249 252
54.1576 -15.4314 0.00875784 255 234 255
40.9392 -13.277 0.0106936 251 249 252
33.9784 -0.448451 0.00572537 100 69 137
34.0466 -4.70032 0.00706599 92 159 117
34.1174 -8.94921 0.00884738 89 149 113
33.9095 3.80447 0.0065984 80 81 108
40.8656 2.11718 0.00649175 104 66 141
41.1343 -6.45682 0.00898229 95 168 123
41.2028 -10.6439 0.00997904 224 202 228
41.2647 -15.0235 0.0115708 251 249 252
41.0648 -2.06786 0.00775873 107 73 147
44.5721 -10.1723 0.0100087 97 152 121
44.6433 -14.4241 0.0121469 251 249 252
44.4415 -1.39439 0.00726467 115 72 152
44.7158 -10.3675 0.00959852 96 155 126
44.7841 -14.6183 0.00984925 251 249 252
44.5768 -1.52923 0.00732185 115 72 152
46.3325 -6.18434 0.00804824 103 153 140
46.4757 -14.9625 0.0110447 251 249 252
46.3937 -10.4351 0.00934603 122 167 138
46.2656 -3.21715 0.00784771 115 73 147
46.4696 -11.7872 0.00897851 242 213 245
46.5351 -16.1719 0.00972195 251 249 252
46.3945 -7.67231 0.00896671 97 161 134
46.3352 -3.28591 0.00884159 115 73 149
47.2778 -12.9357 0.00956447 246 204 250
47.3433 -17.3178 0.00974501 251 249 252
47.6847 -13.6814 0.00893067 255 242 255
48.0825 -17.0536 0.0100188 251 249 252
48.424 -14.0152 0.00988345 255 248 255
48.2924 -5.24139 0.00879804 111 79 152
48.8265 -14.0178 0.0100316 249 231 249
52.54 -13.3411 0.00949445 194 167 207
53.1458 -14.2823 0.00853211 254 228 255
53.6254 -14.9628 0.0104252 223 200 228
41.1354 2.99527 0.00474477 104 67 144
41.402 -14.6213 0.0135055 251 249 252
41.3338 -10.239 0.0112791 57 66 55
41.2667 -6.11968 0.00821923 88 161 118
41.2014 -1.73004 0.00662422 107 73 149
35.7329 -5.17325 0.00824046 85 154 115
35.8662 -13.4734 0.0114128 98 164 121
35.81 -9.22297 0.0100542 83 140 99
35.6664 -0.918906 0.00553774 104 68 140
38.5023 0.969496 0.00566692 104 67 141
38.5707 -3.41773 0.00779051 104 74 138
38.639 -7.80323 0.00856183 82 154 90
38.7077 -12.1976 0.0097155 251 249 252
38.7803 -12.8634 0.0111582 251 249 252
42.8954 -12.0539 0.0094695 239 222 241
42.754 -3.75549 0.00849895 104 72 137
47.1399 -16.3792 0.0106429 251 249 252
47.0763 -12.3225 0.00960636 244 206 247
47.1422 -7.67036 0.00887401 103 163 139
47.2091 -12.0596 0.009639 250 218 250
47.4845 -8.2794 0.00906728 108 170 137
47.6085 -17.0487 0.00907818 251 249 252
47.5498 -12.8047 0.0105649 234 197 240
48.226 -13.6125 0.00964392 250 228 251
48.1554 -9.15279 0.0101213 105 166 132
48.0883 -4.76895 0.00803595 112 77 153
48.4912 -14.1509 0.00955499 252 250 255
48.3604 -5.03603 0.00796057 110 78 153
48.8305 -9.76422 0.00943412 100 160 125
49.234 -10.0361 0.00989511 116 172 135
49.1647 -5.77926 0.00873354 115 79 153
49.7097 -10.4333 0.00985574 123 167 142
49.7663 -14.8245 0.00844784 252 250 255
49.6411 -6.31918 0.00811172 108 82 135
50.99 -16.6494 0.0238512 252 250 255
52.3403 -13.133 0.00860053 234 211 253
53.2198 -14.0838 0.00862822 255 230 255
53.4913 -14.5578 0.00881002 212 185 216
55.107 -15.836 0.0087865 188 172 199
41.4718 0.698819 0.00650805 109 68 147
41.6798 -12.3278 0.0110208 251 249 252
41.6095 -8.07302 0.00859965 89 158 112
41.5397 -3.55392 0.00707563 104 72 137
41.3354 -6.79055 0.0100589 94 165 122
41.202 1.71262 0.00629863 105 67 142
36.9512 2.58702 0.0230528 101 65 137
37.0808 -5.91599 0.00811993 87 160 113
37.1504 -10.771 0.0101652 250 252 245
37.0206 -1.66216 0.0070082 104 71 140
46.8018 -15.6364 0.0108789 251 249 252
46.8716 -16.3085 0.00954434 251 249 252
46.8045 -11.7208 0.0105031 245 224 250
46.738 -7.46505 0.0091011 104 168 141
46.6703 -2.9476 0.00881527 115 76 151
47.5499 -16.9819 0.00987234 251 249 252
47.3434 -3.6223 0.00843931 117 75 149
48.5643 -14.3523 0.00986615 252 250 255
49.9646 -14.9595 0.00834566 253 248 254
50.6523 -13.3413 0.00850028 243 208 245
51.1248 -16.0369 0.00914205 254 249 255
51.0619 -11.7868 0.010313 141 185 152
52.6731 -13.0688 0.0090765 215 188 231
53.2148 -13.9478 0.00844319 230 201 231
54.9704 -15.4965 0.008868 252 230 253
33.1689 -2.87952 0.00641052 100 70 132
33.2372 -7.2672 0.00895584 29 53 41
33.2987 -11.6538 0.00995901 97 158 117
33.1034 1.506 0.00644763 100 67 137
44.5074 -4.77058 0.00759765 99 162 135
44.6447 -13.2767 0.0108356 251 249 252
44.5735 -8.88816 0.00985057 96 157 126
44.4414 -0.381806 0.00694014 116 81 155
46.3366 -7.19624 0.00890822 100 167 136
49.5055 -9.76038 0.00946777 118 177 138
49.7013 -16.5147 0.00866353 251 248 255
51.245 -16.6953 0.0352322 254 249 255
31.6821 3.7383 0.00864473 85 78 116
31.752 -0.444638 0.00701089 102 69 138
31.886 -8.95278 0.00841 85 145 109
31.8179 -4.83635 0.00596344 74 137 106
54.5031 -14.6307 0.00815874 254 228 255
55.4443 -15.6995 0.00896997 245 227 243
55.9907 -16.2446 0.0169437 251 243 254
32.4281 0.227321 0.00699463 101 68 137
32.5635 -8.61567 0.00757919 86 145 110
32.4955 -4.1603 0.00587188 138 152 185
31.5521 0.496999 0.00806227 99 68 136
31.683 -8.27851 0.00906313 86 147 113
31.7552 -12.191 0.00783478 150 141 229
31.619 -3.89038 0.00535639 100 75 131
41.2003 -9.89419 0.00982165 75 131 84
41.2669 -14.1524 0.010577 251 249 252
41.07 -0.786035 0.00714132 108 69 148
41.0017 3.45554 0.0218838 102 71 141
41.8794 -10.5072 0.00929132 243 235 251
41.9457 -14.8909 0.0113486 251 249 252
41.8078 -6.11975 0.00860272 94 165 125
41.7392 -1.73336 0.00714942 106 70 147
41.6746 2.72551 0.00550124 108 70 143
42.1487 -6.32198 0.00935619 96 167 125
42.2158 -10.5734 0.00923486 236 227 247
42.2853 -14.6217 0.0101364 251 249 252
42.0787 -1.79459 0.00783258 107 70 147
42.0131 2.45117 0.00579968 106 69 142
45.3931 -9.35826 0.00927751 95 153 130
45.457 -13.741 0.00961682 251 249 252
45.2526 -0.85132 0.00722839 114 73 152
47.1414 -11.1161 0.0088657 118 163 134
47.2002 -15.3641 0.0093744 251 249 252
47.0763 -6.78974 0.00953662 121 172 155
47.0068 -2.53919 0.0074415 116 76 149
47.2143 -7.06228 0.00927084 114 172 146
47.2796 -11.1787 0.00877964 104 151 122
47.3424 -15.5656 0.0114804 251 249 252
47.2057 -6.99509 0.00806938 112 170 141
47.277 -11.2457 0.00873384 106 156 126
47.3466 -15.4986 0.010789 251 249 252
51.5292 -11.3104 0.00950212 96 96 104
53.8885 -14.6181 0.00827736 232 203 234
54.7754 -14.5575 0.00857954 253 227 254
41.3353 -4.90605 0.00746127 85 153 114
41.4764 -14.0185 0.0104871 251 249 252
41.402 -9.15341 0.00956022 88 134 100
41.2691 -0.650108 0.00726315 107 68 149
41.1884 3.6014 0.0218433 99 68 136
43.7002 -3.21508 0.0079499 109 73 145
43.7634 -7.33139 0.0091112 98 164 132
43.8298 -11.7138 0.0106493 229 198 229
43.6323 1.17246 0.0069358 112 69 149
45.138 3.96614 0.0102213 96 95 135
45.3223 -10.6403 0.00913723 95 147 123
45.3912 -14.7607 0.0104751 251 249 252
45.2506 -6.25027 0.00936317 99 164 134
45.1858 -0.44716 0.00733975 117 76 154
45.9296 -13.673 0.0102974 251 249 254
45.8559 -9.29131 0.00934998 91 150 122
48.1541 -12.0556 0.00861557 244 228 254
48.0905 -7.80318 0.00909833 120 168 152
48.5614 -15.5665 0.00912065 251 249 254
50.6509 -14.3555 0.00876169 211 181 215
51.732 -11.8573 0.00873511 164 188 166
51.8003 -16.1108 0.00991818 252 244 255
51.6669 -11.0471 0.0102629 146 145 161
52.4029 -11.6532 0.00879653 26 26 36
53.8941 -15.0957 0.00922466 243 220 248
53.8262 -13.2076 0.0103519 156 130 158
55.1093 -14.6263 0.00848299 255 227 255
55.779 -15.5708 0.00899513 249 227 250
42.7547 -1.86586 0.00689554 109 68 144
42.8961 -10.7102 0.00925199 226 215 239
42.9592 -15.0929 0.0100346 251 249 252
42.8218 -6.32014 0.00874421 95 167 129
44.9143 -12.5994 0.0104694 232 208 240
44.846 -8.3404 0.00931626 94 155 124
44.7141 0.432802 0.00718463 114 73 149
45.5849 -9.15501 0.00929126 91 151 123
45.654 -13.6779 0.0100504 251 249 252
45.4539 -0.312639 0.00701766 112 72 148
45.995 -13.6777 0.00986763 251 249 254
45.9283 -9.42509 0.00939338 93 153 127
45.861 -4.90421 0.00944505 86 97 119
45.794 -0.651091 0.00700276 114 73 152
45.9927 -5.10454 0.0083018 94 117 131
46.0606 -9.01911 0.00940221 92 158 123
45.9253 -0.718355 0.00749241 114 75 154
46.6055 -14.4203 0.0101078 251 249 252
46.5341 -5.64452 0.00908551 58 76 90
46.6048 -9.83269 0.00952115 132 175 159
46.4675 -1.25944 0.00728492 117 76 155
49.3015 -17.1219 0.0166636 251 249 252
49.8368 -13.6762 0.00853574 254 223 255
50.6538 -14.7575 0.00820943 253 251 255
51.4629 -14.9636 0.00866719 255 245 255
51.4677 -10.6453 0.00843249 53 45 69
51.5315 -15.0228 0.00876582 254 244 255
52.7445 -11.9223 0.00849803 112 103 124
55.4452 -14.4147 0.00874776 255 222 255
32.2251 3.66903 0.00802523 85 70 117
32.2929 -12.5313 0.00883838 81 125 122
30.9401 3.4007 0.00733781 98 67 131
31.0092 -0.98911 0.00602329 100 69 137
31.0761 -5.37677 0.00633517 73 135 101
31.145 -9.76256 0.00864834 84 145 109
36.5474 -3.68922 0.00815333 107 73 134
36.4745 0.693539 0.00992112 106 68 141
41.3345 -8.41367 0.00869357 86 148 111
41.4005 -12.6655 0.0110668 251 249 252
41.2691 -4.16019 0.00790904 174 182 221
41.2039 0.0914536 0.00689638 109 73 147
41.4044 -4.50185 0.00735137 85 144 116
41.5518 -12.2609 0.00966258 251 249 252
41.4763 -7.87451 0.0103823 88 157 112
42.5554 -5.16991 0.00782506 94 164 127
42.6199 -9.55926 0.0103899 102 150 121
42.6886 -13.9452 0.0111701 251 249 252
42.4066 3.12133 0.0218635 106 68 143
43.1623 -12.5265 0.00959839 254 247 254
42.9567 2.58635 0.00581737 106 68 143
43.1567 -12.4639 0.0101814 255 248 255
43.0219 -1.7289 0.00835153 109 69 145
42.958 2.52322 0.00603498 107 69 144
45.591 -4.36119 0.00851077 65 56 101
45.6573 -8.7521 0.00873763 97 161 130
45.7881 -16.5074 0.0105982 251 249 252
45.7229 -13.1335 0.0110505 254 246 254
45.7913 -3.55301 0.00824262 112 77 145
45.7227 -0.178494 0.00684212 116 75 151
46.2011 -9.08652 0.0107591 94 161 128
46.8715 -13.8109 0.00986175 252 250 255
46.8729 -5.10566 0.00751348 111 88 142
46.941 -9.35752 0.00945061 103 169 134
47.0049 -13.6126 0.0104302 253 245 254
46.8069 -1.32623 0.00767774 118 76 152
49.2412 -16.2442 0.00891459 251 249 253
49.1724 -11.9933 0.00907733 127 172 143
49.7659 -12.6027 0.0091247 230 213 241
49.7734 -8.41194 0.00851898 110 98 146
52.6756 -15.5639 0.00871134 138 118 152
52.6061 -11.3182 0.010022 57 45 62
31.0099 2.18453 0.00777866 102 70 133
31.1461 -6.31933 0.00730732 84 152 115
31.0741 -2.06817 0.00700177 101 70 138
42.2157 -0.448712 0.00683988 108 69 151
42.4064 -13.8199 0.0105871 251 249 252
42.3508 -9.55516 0.0108511 92 147 115
42.1371 3.79492 0.0220531 99 73 135
42.7532 -1.19054 0.00657116 107 71 145
42.8218 -5.91623 0.00916994 96 168 130
42.9558 -14.4231 0.010642 251 249 252
42.6849 3.20793 0.021902 110 72 149
44.2374 -2.67703 0.00775545 109 73 143
44.3087 -7.06284 0.00894543 100 166 133
44.4402 -15.9065 0.0111708 251 249 252
44.1723 1.71421 0.00630376 110 72 147
44.9172 -15.2343 0.0110529 251 249 252
44.6443 1.30582 0.00692116 114 71 151
45.1858 -7.66979 0.00834506 94 158 127
45.2503 -16.312 0.010325 251 249 252
45.0487 0.833587 0.006597 117 76 155
45.994 -12.8042 0.00970025 250 222 253
45.7919 0.0927435 0.00725618 117 76 152
47.4117 -1.99896 0.00680125 110 81 137
47.5519 -10.502 0.00888515 29 43 37
47.6057 -14.7559 0.0100598 251 249 254
47.955 -11.5844 0.0096561 107 156 127
48.0862 -15.7008 0.00911881 251 249 254
48.6967 -6.92861 0.00784624 111 82 144
48.8277 -16.0373 0.00882876 251 249 252
49.7023 -14.0166 0.00935217 244 220 244
49.6394 -9.76419 0.00855062 121 176 140
50.1823 -16.9865 0.0303716 250 247 254
50.8542 -9.08822 0.00916039 122 95 148
50.9178 -13.9449 0.00830319 255 221 255
51.2648 -14.285 0.0083898 222 189 232
51.932 -10.1717 0.00855837 129 106 148
52.0044 -14.4904 0.00828485 215 180 222
32.2268 2.79219 0.00594176 98 66 133
32.293 -11.6552 0.00848965 82 142 108
41.0676 -3.14696 0.00695307 106 71 142
41.2031 -11.7237 0.0113452 255 245 255
41.0008 0.969064 0.0065148 102 68 144
41.3371 0.765415 0.00677623 109 68 147
41.5474 -13.1333 0.00986943 251 249 252
41.4746 -8.8854 0.00958292 54 87 76
42.079 -2.87827 0.00713817 103 69 143
42.2852 -15.6971 0.0108821 251 249 252
42.1506 -7.40085 0.00927575 91 162 120
45.5884 -3.68895 0.00728403 107 74 143
45.6609 -7.80563 0.00910845 92 157 126
45.7281 -12.1962 0.0104584 248 221 254
49.1643 -7.13176 0.00835235 111 83 141
49.233 -11.3818 0.00956156 157 185 169
49.5684 -14.2156 0.00983328 251 234 253
50.7219 -8.68002 0.00810228 121 88 147
51.0582 -8.88754 0.00890743 123 93 153
51.8696 -14.0196 0.00805778 244 211 247
53.2866 -15.3653 0.00703777 145 118 159
32.2982 -9.15305 0.00902912 83 146 109
32.2242 0.296784 0.00704833 101 68 137
49.507 -17.3222 0.0448835 251 249 252
45.9978 1.98093 0.00700512 114 78 146
46.0658 -2.07063 0.00746656 117 76 150
46.1277 -6.32139 0.0091991 102 155 135
46.2625 -15.0936 0.00948612 251 249 252
46.1957 -10.8428 0.0106372 79 124 103
36.1428 -3.14852 0.00649155 102 71 138
36.2073 -7.39836 0.00755902 92 155 108
36.2695 -11.6549 0.0106145 101 163 100
36.068 1.1 0.00992114 99 66 137
41.8748 -12.5335 0.00970218 251 249 252
41.8066 -8.41485 0.0107748 85 151 115
41.7434 -4.02195 0.00803717 88 72 126
42.7532 -8.74886 0.00890355 88 149 118
42.8207 -13.4766 0.0102909 251 249 252
42.6187 -0.246165 0.00681599 109 70 149
45.1194 -2.54439 0.00700876 111 73 146
45.1863 -6.93013 0.00813693 98 165 131
45.2495 -8.21157 0.00928996 93 157 127
45.3888 -16.7074 0.0102362 251 249 252
45.3215 -12.4657 0.0107663 236 204 242
46.2011 -3.69195 0.00785385 113 76 146
46.3328 -14.4181 0.0101988 251 249 252
46.1302 0.562613 0.00676265 113 76 153
46.1968 -3.62203 0.00722292 113 76 147
46.3312 -14.3492 0.00942754 251 249 252
46.7425 -8.752 0.00923327 110 173 144
46.87 -17.0542 0.00943558 251 249 252
46.8019 -13.1354 0.0116067 237 212 244
46.6692 -4.36291 0.00931666 112 80 147
47.9537 -14.4211 0.00905644 251 249 253
47.8877 -9.82936 0.01075 106 167 136
47.8913 -9.89854 0.00872952 109 166 135
47.9544 -14.3537 0.00897504 251 249 254
47.8838 -5.57941 0.00946163 112 82 149
48.0253 -10.1008 0.00953792 110 158 132
48.0852 -14.4871 0.00973238 251 249 253
49.1046 -16.0446 0.00878375 251 249 254
48.9667 -6.6563 0.00925087 112 81 151
50.1753 -11.115 0.00862883 20 21 28
50.2546 -15.6319 0.008662 253 249 255
50.2492 -15.5612 0.00855138 252 250 255
50.1812 -11.1853 0.010532 106 111 119
50.8521 -12.6029 0.00994505 175 182 192
51.5332 -13.0678 0.0104954 247 220 253
51.5979 -13.5398 0.0114441 253 217 253
51.666 -13.3346 0.010728 214 181 216
52.3442 -14.3523 0.00782491 243 216 247
52.9414 -14.8901 0.00870636 247 222 252
42.2843 -4.15946 0.007366 189 191 222
42.4109 -12.6667 0.0110788 251 249 252
42.351 0.363426 0.00665674 108 69 148
42.4808 -8.14337 0.00892797 91 157 121
42.5615 -13.4135 0.0104749 251 249 252
42.419 -3.75264 0.00793844 105 72 136
44.3037 -11.3804 0.00935968 235 212 241
44.3695 -15.7727 0.0107691 251 249 252
44.1148 2.92988 0.018237 110 70 146
45.5222 -11.4511 0.0103363 226 205 231
45.5874 -15.8396 0.0109954 251 249 252
45.4531 -6.72355 0.0100119 96 163 130
45.3203 1.77857 0.00632488 113 77 151
45.7261 -2.80955 0.0072021 115 74 149
45.9247 -16.175 0.0111307 251 249 252
45.858 -11.6516 0.0106151 241 211 243
45.6558 1.44135 0.00639586 114 73 152
45.9929 1.03905 0.00648864 108 73 153
46.0626 -3.28389 0.00845466 113 73 146
46.1271 -7.53593 0.00822492 96 160 129
46.264 -16.0412 0.0106613 251 249 252
46.8746 -9.02235 0.0086612 107 173 137
47.6828 -13.6113 0.00910423 245 228 246
48.2925 -9.69566 0.00856194 101 165 130
48.7594 -6.25722 0.00870842 108 79 145
48.8947 -15.0277 0.00896804 251 249 252
49.4997 -11.1085 0.0104011 34 49 44
49.7025 -15.1678 0.00912479 251 249 254
49.7042 -7.13274 0.00759613 119 84 145
49.8413 -15.4328 0.00857592 251 249 252
49.7715 -11.3864 0.00979641 118 144 141
50.5798 -16.5148 0.01005 251 248 255
50.5201 -12.1271 0.0108129 133 184 147
50.7209 -12.3924 0.0103966 143 185 152
50.6559 -8.0039 0.00864426 117 89 143
52.0729 -13.2069 0.00896409 228 202 237
54.2977 -15.6393 0.00781327 171 144 178
40.8664 -1.79669 0.00718208 111 77 151
40.7956 2.58904 0.00520704 104 67 144
41.3369 1.77916 0.00557959 105 67 142
41.4053 -2.60997 0.00749297 108 74 147
41.4713 -7.60523 0.00936996 92 162 117
43.2996 -8.61704 0.00943571 91 156 126
43.3591 -12.8 0.00964875 251 249 252
43.1592 -0.11135 0.00688654 108 70 145
46.7404 -16.1733 0.00949228 251 249 252
48.2247 -9.22231 0.0111441 106 167 133
50.8529 -16.2423 0.0088171 253 248 254
51.733 -9.96504 0.00794156 122 99 145
51.8003 -14.2191 0.00775794 255 221 255
52.2736 -13.0016 0.00839785 230 209 250
54.2996 -15.5064 0.00894211 255 234 255
55.242 -16.3124 0.0237198 251 243 253
42.8237 0.835952 0.00686442 109 70 149
42.962 -7.67287 0.00872092 92 157 124
43.0864 -15.1706 0.0101391 251 249 252
43.0262 -12.0555 0.0116494 252 233 255
43.8337 -4.42931 0.00763418 102 153 142
43.906 -8.6148 0.00888016 92 157 127
43.768 -0.0435449 0.00681033 112 72 148
43.7097 4.08638 0.0157747 112 139 150
46.2659 -2.74319 0.00753971 116 76 149
46.4692 -15.4344 0.0104398 251 249 252
46.3981 -11.045 0.0107573 180 222 199
47.3431 -12.4658 0.00917894 233 196 237
47.4047 -16.9191 0.0102786 251 249 252
47.4809 -8.34137 0.0090771 104 166 132
47.607 -17.1225 0.0103286 251 249 252
47.5468 -12.7402 0.00991676 253 217 255
47.4828 -4.02293 0.0073893 113 76 147
47.6834 -17.2505 0.0101195 251 249 251
47.749 -4.1624 0.00833947 113 72 148
47.8205 -8.4155 0.00906273 107 166 136
47.8869 -12.6662 0.00976742 228 191 234
48.1538 -8.68265 0.00823084 114 169 140
48.2242 -13.0036 0.0098804 213 176 220
48.2935 -17.2556 0.00964389 251 249 250
48.3588 -13.6728 0.010224 245 223 247
48.3545 -13.6087 0.00895814 248 225 248
48.8959 -13.6765 0.00864895 251 227 253
49.2351 -9.82948 0.0100178 113 174 133
49.3132 -14.5521 0.00950047 252 250 255
49.6326 -15.9048 0.00862728 251 249 252
50.1094 -10.2386 0.00901831 125 175 146
50.1844 -14.4893 0.009055 248 240 251
50.653 -13.1375 0.00835266 238 202 246
51.3954 -11.9212 0.00866078 153 193 159
52.0716 -12.9324 0.00929457 177 165 195
52.7415 -13.3422 0.00998109 205 175 213
53.1464 -13.4774 0.0104086 237 207 243
54.368 -15.2314 0.00833654 253 230 255
41.6744 2.18517 0.00621797 103 67 141
41.7411 -2.27113 0.00748332 110 74 148
41.8081 -6.66123 0.00893276 95 165 121
41.8796 -11.047 0.010016 239 215 241
41.9412 -15.4357 0.0103052 251 249 252
43.0239 -11.6509 0.0094515 242 214 243
42.8875 -2.87782 0.00776626 103 69 143
43.2937 -7.80242 0.0091988 95 158 127
43.3589 -12.5279 0.00959583 254 247 255
43.2951 -3.42006 0.00735469 105 72 141
43.4297 -12.5296 0.00958906 254 247 255
43.3573 -8.27672 0.0108729 93 154 124
43.2293 0.833959 0.00686319 111 70 149
45.3203 -1.45916 0.00685385 113 72 150
45.3879 -5.57894 0.00776669 100 168 140
45.4563 -9.96623 0.00896389 53 73 70
45.52 -14.6875 0.00977148 251 249 252
45.2575 2.93493 0.0187229 116 74 150
46.0577 -6.79276 0.00819431 101 164 137
46.1944 -15.2962 0.00951069 251 249 252
46.1308 -11.0491 0.0103435 139 181 154
45.9973 -1.93341 0.00738812 117 75 151
47.682 -7.93945 0.00831181 111 165 142
47.7543 -12.3274 0.00876947 247 212 249
47.8163 -16.4444 0.00974028 251 249 252
49.7079 -9.89644 0.00834795 121 179 139
49.7661 -14.285 0.00873757 240 222 242
55.5794 -16.3815 0.0294778 249 243 253
40.1177 -11.0446 0.00928002 251 228 252
39.9884 -2.2047 0.00714418 107 73 147
42.7573 1.50834 0.00632731 109 68 144
42.8964 -7.60346 0.00986131 92 157 123
42.963 -11.7204 0.0106766 224 199 228
42.8217 -3.2127 0.00844433 104 71 140
43.5654 0.764011 0.00611999 109 71 148
43.631 -3.41619 0.00741716 106 73 142
43.7745 -11.9186 0.00943596 253 228 254
44.1703 -4.2979 0.00862819 186 213 221
44.2393 -8.54477 0.00878671 92 155 126
44.309 -13.0734 0.0109398 251 249 252
44.1064 0.294841 0.00683389 113 72 150
46.1315 -10.3701 0.00986794 119 167 141
46.0624 -6.1183 0.00967108 101 154 138
45.9951 -1.53003 0.00781502 116 75 153
48.4927 -6.45735 0.00783394 107 82 143
48.561 -10.7117 0.0100561 17 33 33
48.6337 -15.2348 0.00992268 251 249 252
48.6968 -13.0639 0.0102636 250 213 255
49.1689 -8.95609 0.00886799 127 168 151
49.2417 -13.3439 0.0093407 191 155 198
49.3711 -14.0799 0.010381 199 177 200
49.845 -9.42278 0.00947333 134 170 156
49.904 -13.8111 0.00847222 225 195 231
51.5992 -16.0375 0.00796539 254 247 254
51.5324 -11.9193 0.0103127 155 191 160
56.3211 -15.9052 0.00777414 246 227 247
37.7605 0.696577 0.00531814 105 69 143
37.8267 -3.41886 0.00685483 103 72 136
37.895 -7.80079 0.00918643 90 159 101
37.9665 -11.9954 0.0107819 251 249 252
41.5403 -0.650627 0.00641355 107 68 149
41.6735 -9.42364 0.00974976 84 142 101
41.7418 -13.3385 0.00988992 251 249 252
41.4518 3.73469 0.0160028 99 74 132
42.6867 1.98188 0.00571413 105 69 143
42.8905 -11.2488 0.00938169 249 225 252
42.9579 -15.6422 0.0122026 251 249 252
43.7674 0.900529 0.00610071 112 71 150
43.8351 -3.48651 0.00741441 107 75 143
43.9747 -11.7875 0.0105792 245 214 245
