ply
format ascii 1.0
comment Created by Open3D
element vertex 1271
property double x
property double y
property double z
property uchar red
property uchar green
property uchar blue
end_header
59.2924 -9.63091 0.00588638 99 92 134
59.3601 -14.0166 0.00656036 109 105 142
59.171 -1.86006 0.0169422 74 70 121
59.2211 -1.94051 0.00915143 71 64 118
59.3612 -5.3543 0.0105399 90 74 137
59.4275 -9.76265 0.00596379 99 93 134
59.4957 -14.1523 0.00691487 108 106 143
59.2776 -0.983152 0.0243808 117 145 169
33.8452 4.07672 0.0054919 45 81 84
33.9793 -3.95927 0.00727895 77 109 145
33.9143 0.295315 0.00666048 64 50 109
49.9099 1.91423 0.00480518 73 56 127
49.9793 -2.60681 0.00720313 83 62 131
50.1784 -3.89399 0.00745993 79 66 135
50.1129 0.497053 0.00633392 80 59 130
50.9221 -8.75387 0.00784399 87 76 135
50.8549 -4.56605 0.00790952 82 66 133
50.7877 -0.177739 0.00598688 80 61 127
50.8556 -0.0433372 0.00568744 80 59 128
50.9899 -8.88799 0.00787887 88 77 138
50.9207 -4.6354 0.00874893 81 66 133
51.0511 2.85235 0.0149797 75 58 126
51.1258 -1.52838 0.00626347 83 63 132
51.2628 -9.29179 0.0100175 87 76 134
51.1895 -4.90283 0.00802004 80 65 132
51.5557 3.39285 0.0196246 55 73 110
51.5977 -1.12168 0.00644582 84 63 132
51.7334 -8.88289 0.00825742 89 78 138
51.6667 -5.3746 0.00813976 82 68 135
41.0666 2.72446 0.00575669 67 53 114
51.7314 -4.36297 0.00649184 81 66 133
41.1387 -1.52933 0.00806627 65 53 119
51.7989 -8.75446 0.00926283 90 79 139
51.7987 -1.46111 0.00647605 84 66 134
51.935 -9.96414 0.00948675 93 82 138
51.8678 -5.57865 0.00839134 83 71 135
52.8193 2.91901 0.0146991 80 65 129
52.9452 -5.57753 0.00664316 86 74 138
53.0777 -14.1518 0.00830723 95 92 136
52.947 -1.25876 0.00548034 84 63 132
53.0822 -9.83188 0.0076048 98 89 142
53.1544 -14.2196 0.00876153 98 92 138
53.0181 -5.64327 0.00771348 85 73 136
53.5406 0.30217 0.0156553 82 62 131
53.6213 -4.15994 0.00601618 87 70 138
53.7571 -12.9341 0.0083523 108 102 149
53.6888 -12.6689 0.00832752 105 97 146
53.6201 -8.41591 0.0086901 99 88 146
53.4848 0.156594 0.0237581 81 61 130
54.0319 -11.7879 0.00822562 105 97 146
53.8925 -3.28488 0.0064325 85 68 136
54.2303 -2.40399 0.00538835 90 71 137
54.3632 -11.1757 0.00825452 105 97 146
54.4307 -16.3088 0.0221478 148 138 165
54.3739 2.23029 0.0144518 78 63 130
54.501 -6.05209 0.00694755 93 79 140
54.633 -14.8201 0.00818523 100 91 138
54.5659 -10.4406 0.00888913 105 97 144
54.9071 -13.8831 0.00846181 113 104 151
54.8383 -9.62975 0.00794835 107 97 149
54.7697 -5.37395 0.00777686 89 74 136
54.6108 3.19858 0.0242601 77 137 138
54.7683 -0.922079 0.00871982 82 63 129
54.9738 -12.6628 0.010361 111 103 150
54.9029 -9.69796 0.00895409 105 95 147
55.309 -4.56398 0.00545315 85 69 135
55.4468 -13.3401 0.00838708 107 98 145
55.3742 -9.08709 0.00748557 103 94 147
55.2579 -0.303971 0.0174073 83 63 132
55.3762 -3.82287 0.00550393 85 65 134
55.5112 -13.4729 0.00931167 107 99 146
55.4489 -8.07568 0.00697931 96 86 139
55.4325 0.651741 0.0179684 83 61 129
55.5768 -7.12933 0.00655559 90 79 139
55.7214 -15.9078 0.00855675 84 78 118
55.6472 -11.5137 0.00878532 113 104 151
55.5119 -2.74288 0.00540736 83 63 132
55.6484 -3.08125 0.00524663 81 64 132
55.7847 -11.6523 0.007924 113 104 149
55.8488 -15.9046 0.00764535 83 78 118
55.7818 -7.46987 0.00753915 89 80 137
55.8487 -11.7204 0.00730171 111 102 148
55.9181 -16.2413 0.0170835 84 76 120
55.8496 -7.53528 0.00601764 89 80 137
55.9158 -11.7834 0.00775128 111 102 149
55.9896 -16.0406 0.00950994 84 78 119
55.7289 1.60013 0.0241344 78 64 125
55.9838 -7.73772 0.00621295 89 79 135
56.1135 -13.0671 0.00891538 120 111 158
56.0541 -8.6822 0.00758537 96 87 142
56.1121 -1.462 0.00912007 86 65 134
56.3186 -14.6871 0.00792637 107 100 144
56.2581 -9.96508 0.00873191 102 94 145
56.6611 -4.97012 0.00607813 86 67 133
56.7269 -9.35468 0.00710673 92 85 137
56.8625 -13.3443 0.0080014 114 105 150
56.8012 -9.4284 0.0079494 95 88 140
57.4718 -14.2848 0.00764011 109 100 147
57.3349 -5.44422 0.00576503 84 69 132
57.6045 -9.69409 0.00723358 95 88 139
57.6752 -15.0983 0.00751187 89 81 122
58.3466 -16.1075 0.0113993 86 78 119
58.2797 -11.9942 0.00872871 103 95 142
58.214 -7.60311 0.00619949 90 79 137
58.5504 -6.72597 0.00510193 86 75 133
58.6179 -11.2511 0.00614833 103 96 140
58.6852 -15.4963 0.00786466 85 76 119
58.9539 -7.87117 0.00615511 94 82 138
58.9599 -3.40954 0.010094 80 64 126
59.0221 -7.4697 0.00536275 92 79 140
59.0907 -11.7204 0.00632411 105 98 140
59.1568 -16.2407 0.0162993 82 73 116
59.1607 -2.79456 0.0118636 82 68 129
59.493 -13.2072 0.00858078 106 104 143
59.4282 -8.81741 0.00648761 99 90 136
59.6286 -3.88865 0.00979214 83 67 130
59.7663 -12.3984 0.00641267 103 101 140
40.8656 -1.73147 0.00654625 64 52 118
40.798 2.52287 0.00521903 67 51 114
33.9811 0.632245 0.00551389 60 49 109
34.0477 -3.61758 0.00656876 64 51 105
58.549 -17.9301 0.423004 86 78 119
58.0739 -1.93836 0.0094136 78 62 127
58.3466 -7.13195 0.00566784 90 76 135
58.4784 -15.4311 0.00747686 81 72 115
55.9859 -17.8619 0.397881 234 221 251
51.2813 2.22692 0.014835 77 61 130
51.3266 -2.0016 0.00600203 82 65 133
51.4607 -10.5808 0.00939283 87 84 134
51.3949 -6.25283 0.00820058 82 70 134
51.2508 2.19511 0.019388 77 60 131
51.3982 -6.31866 0.00767626 84 72 136
51.4637 -10.5077 0.00977792 87 83 134
51.3286 -1.93206 0.00727966 81 64 132
52.2004 1.30492 0.010282 77 57 126
52.4105 -12.4562 0.0102168 52 66 84
52.8107 -9.28871 0.00755887 99 88 147
52.8764 -13.5427 0.0111125 95 98 136
52.7442 -3.35223 0.00694537 84 67 136
53.149 -13.0017 0.00846379 104 98 144
52.9961 0.0701105 0.00517089 80 60 129
53.0818 -4.77083 0.00628256 85 69 134
53.148 -9.0232 0.00773868 102 91 147
53.2176 -13.2725 0.00968895 103 97 142
53.4204 -0.786126 0.00509656 85 64 133
53.554 -9.29012 0.00830078 102 92 145
53.6223 -14.0145 0.00984249 100 93 144
53.4881 -4.90253 0.00735501 86 70 135
53.422 -5.37759 0.00693881 87 73 134
53.487 -9.48984 0.00715785 102 92 146
53.5536 -13.877 0.00978322 104 96 145
53.3524 -0.988896 0.00558068 84 63 132
53.7582 -9.76012 0.00760025 106 97 150
53.8253 -14.0147 0.00834436 103 95 145
53.8928 -14.2896 0.0098393 102 92 144
53.8381 -0.128032 0.010282 85 65 133
53.9547 -15.1625 0.00902729 82 70 116
53.892 -10.9106 0.0098278 103 95 146
53.7572 -1.05479 0.00538363 84 64 133
53.8261 -5.44443 0.00704167 85 71 132
53.961 -9.96797 0.00762308 106 97 150
54.0943 -1.59687 0.00506244 86 65 133
54.1614 -5.77994 0.00700923 88 74 135
54.2994 -14.2935 0.00851218 101 93 144
54.2322 -10.1692 0.0095545 103 95 146
54.0515 2.72993 0.01407 75 63 125
54.0946 -1.52868 0.0050992 87 66 133
54.2292 -10.0993 0.00770332 99 91 143
54.2979 -14.3523 0.0101239 99 92 143
54.5682 -1.93206 0.00552803 86 65 132
54.6333 -6.32 0.00614093 89 78 138
54.7031 -11.0439 0.00819759 108 98 150
54.904 -6.59028 0.00617289 92 81 139
54.9738 -11.4478 0.00829482 108 98 147
55.0462 -15.698 0.00805523 81 72 115
54.9682 0.695839 0.0161451 84 63 130
55.1784 -12.0599 0.00755655 110 102 149
55.2406 -16.3779 0.0280988 228 218 245
55.0385 -3.55341 0.00672127 85 65 134
55.465 -0.32255 0.0152425 82 63 130
55.5822 -8.34609 0.00652283 96 85 141
55.6525 -12.4663 0.00805 113 106 150
55.5816 -4.02511 0.00561281 85 65 134
55.6516 -8.14247 0.00679911 94 84 137
55.7171 -12.5312 0.00787112 118 111 155
55.8513 -12.7315 0.00789579 116 109 153
55.7799 -8.34513 0.00706665 96 85 141
55.6554 0.254638 0.0243512 82 62 131
55.7825 -4.22806 0.00548969 85 64 133
55.7823 0.764063 0.0153713 84 63 132
55.8503 -3.48392 0.00539758 84 63 132
55.9839 -11.9911 0.00893791 112 103 148
56.0522 -13.0735 0.00924991 115 106 153
56.1858 -4.63212 0.00590514 84 66 132
56.2578 -9.02029 0.00655268 97 88 141
56.3213 -13.474 0.00851764 127 117 167
56.8608 -5.24172 0.00537352 84 67 134
56.8029 -1.33191 0.0122701 81 63 129
56.9306 -9.69569 0.00727675 93 89 140
56.8625 -5.44276 0.00579957 84 68 133
57.0721 -1.65389 0.00913639 87 66 133
57.1994 -8.88742 0.00674232 95 85 138
57.2658 -13.2712 0.00758862 124 114 160
57.2002 -4.56556 0.00506987 84 65 131
57.2684 -8.95364 0.00681666 95 85 138
57.3339 -13.3373 0.00763328 125 116 161
57.3314 -4.29892 0.00544393 82 62 131
57.4053 -9.02193 0.00728726 95 86 139
57.4687 -13.41 0.00997593 112 103 148
57.2678 0.0611049 0.0241443 74 64 124
57.2587 0.0401033 0.0169435 75 64 124
57.32 -4.24032 0.00652679 82 62 131
57.4031 -9.08685 0.00611216 95 86 139
57.4702 -13.3407 0.00700907 107 98 143
58.4844 -1.79804 0.00897504 72 62 122
58.8211 -9.35664 0.00669309 97 88 138
58.888 -13.6088 0.00831117 108 102 140
59.0218 -8.68133 0.00599169 97 87 137
59.0904 -12.9365 0.00731598 106 100 144
59.0258 -4.22252 0.0102614 83 67 129
59.3608 -16.2425 0.0159591 80 71 114
59.2241 -8.21003 0.00584109 94 84 137
59.4972 -12.2659 0.00720356 105 100 140
59.5658 -16.1779 0.0136963 78 71 113
59.3688 -3.48779 0.0124851 85 68 131
59.7012 -15.8388 0.00720072 83 76 117
59.6968 -11.3132 0.00631004 105 99 135
59.7659 -15.7012 0.00811313 85 77 118
59.8038 -2.09146 0.00930899 112 136 173
59.897 -6.46014 0.0105128 39 30 87
59.9667 -10.5721 0.00687258 102 98 131
34.8578 -3.95675 0.00643362 93 117 158
34.7898 0.565117 0.00607497 66 52 113
51.193 1.30691 0.00509264 78 58 130
51.3301 -7.46787 0.00793141 86 75 135
51.2618 -3.08208 0.00691946 80 62 133
52.2047 -2.94372 0.00607057 86 69 137
52.2738 -8.34257 0.00800333 90 80 137
52.34 -12.5978 0.00937173 44 65 76
53.4853 -10.6374 0.0077291 106 96 148
53.5511 -14.8914 0.00981586 73 64 111
53.6337 3.04509 0.00974026 74 74 128
53.6909 -1.19058 0.00511306 85 65 134
53.8271 -9.96327 0.00792799 103 95 147
54.4522 1.30492 0.0102819 83 62 131
54.4992 -3.07922 0.00530456 85 68 136
54.635 -11.8568 0.00759937 106 98 145
54.7025 -16.3081 0.0218368 192 179 206
54.5679 -7.47145 0.00799953 93 82 142
54.6348 -7.53428 0.00650786 94 81 142
54.7008 -11.9842 0.00762231 107 99 146
54.7694 -16.3761 0.0281979 240 227 255
54.6359 -3.28375 0.00615577 82 65 133
54.7679 -11.8502 0.00850849 108 100 147
54.8378 -16.1071 0.010905 212 201 234
54.9722 -2.53921 0.00541014 87 67 136
55.0419 -6.79551 0.00717087 91 82 139
55.1739 -15.2967 0.00834851 80 71 116
55.1106 -11.0488 0.00834343 109 101 150
55.1737 -5.91583 0.00589608 90 76 137
55.3125 -15.0271 0.00893217 84 77 121
55.5127 -5.1044 0.00610073 86 69 137
55.5813 -9.35681 0.00769197 104 95 147
55.6487 -13.6084 0.00780607 100 94 142
55.3726 2.93559 0.0174175 73 135 134
55.5077 -0.863746 0.00860706 84 65 131
55.5807 -5.23943 0.00634717 85 69 135
56.1192 -12.057 0.0088105 111 102 147
56.0508 -7.80757 0.00757469 91 80 138
55.9875 0.0766755 0.0102819 82 61 130
56.0537 -7.87394 0.00678197 91 80 138
56.5932 -11.6505 0.00738471 108 101 145
56.6627 -16.0419 0.00992554 85 76 119
56.5227 -8.2777 0.00759341 93 82 137
56.3879 0.477399 0.0174667 82 61 130
56.8148 2.0332 0.0136405 86 134 144
56.8623 -2.13198 0.0092037 85 68 136
56.9305 -6.52389 0.00603419 83 72 130
56.9985 -10.641 0.00797103 101 91 140
57.0656 -15.0264 0.00760551 78 69 112
57.1307 -3.55644 0.00969544 85 64 131
57.2658 -12.0539 0.00790061 112 104 149
57.0687 1.71563 0.024504 86 127 145
57.4693 -13.5446 0.0078595 112 105 147
57.4011 -9.15439 0.00722101 93 86 138
57.6291 0.892275 0.0133983 58 64 107
57.7403 -8.48084 0.00620385 93 83 136
57.8097 -12.8701 0.00793852 106 100 146
58.2125 -14.0182 0.00721823 106 99 143
58.2396 -0.230251 0.00974008 73 64 119
58.2811 -4.49639 0.0101859 82 66 129
58.3482 -9.01926 0.00598858 94 85 138
58.412 -13.2715 0.00828967 107 100 144
58.342 -0.332606 0.00974007 71 64 117
58.0791 -8.61626 0.00579602 95 85 138
58.4814 -9.15526 0.00658715 95 86 139
58.1453 -13.0038 0.00821657 107 99 145
58.6176 -6.25341 0.00533162 86 73 129
58.7547 -14.8286 0.00755598 117 110 152
58.6849 -10.5025 0.00693792 96 93 136
58.8122 -5.29651 0.0105248 87 71 131
58.8886 -9.56242 0.00613676 98 90 138
58.9572 -13.8118 0.00874587 108 102 140
59.1537 -5.72643 0.0107104 87 73 132
59.2896 -14.5562 0.00749115 109 102 143
59.5702 -1.66321 0.00974003 123 154 183
40.8647 0.293816 0.00679219 67 53 120
34.927 -2.54072 0.00594197 62 51 109
34.8566 1.71044 0.00676513 61 51 109
35.8813 0.145574 0.00615718 64 53 113
35.9354 -4.09329 0.00676174 58 107 118
52.0011 -2.81034 0.00648162 83 66 135
52.0723 -7.19999 0.00824886 84 72 134
52.2017 -15.6979 0.0087092 221 210 243
52.1389 -11.3159 0.00979871 90 86 132
51.9994 1.50419 0.0161282 77 62 128
52.0707 -2.88084 0.00600176 84 67 135
52.2062 -11.3833 0.00922429 93 87 131
52.2699 -15.0301 0.0077336 233 229 252
52.4084 -1.05456 0.00584932 83 62 131
52.4725 -5.30864 0.00650007 85 72 134
52.6094 -14.1558 0.00922831 103 110 140
52.8128 -15.5678 0.00799145 237 227 253
52.7436 -10.036 0.00875199 96 87 140
52.6785 -1.32689 0.00604766 83 63 132
32.6332 3.12992 0.00730826 61 48 102
52.808 -11.25 0.00912133 103 91 141
52.8793 -15.6353 0.00769098 236 226 251
52.7453 -5.71149 0.00724184 90 78 142
52.9066 0.472868 0.0185588 80 59 128
52.9474 -3.75789 0.00638623 86 69 137
53.0772 -12.8681 0.00794924 101 99 143
53.6239 -7.06517 0.00690585 94 84 141
53.6874 -11.3077 0.00899343 107 99 150
53.7601 -15.5727 0.0075201 209 205 232
53.4056 1.78871 0.0187429 81 63 131
53.487 -2.60749 0.00541906 85 65 134
53.5553 -6.99713 0.00768946 94 83 142
53.69 -15.2996 0.00811254 78 68 110
53.8381 1.30492 0.0102819 80 59 128
54.0959 -8.20894 0.00830582 99 89 145
54.0269 -3.81924 0.0063257 85 68 136
53.9547 0.577841 0.0171292 81 60 129
54.1707 3.39136 0.0185402 71 140 135
54.296 -5.10608 0.00598138 87 71 136
54.439 -13.6824 0.00850894 112 103 150
54.2247 -0.992895 0.0100846 83 63 132
54.2478 3.35215 0.00974023 78 147 142
54.2967 -0.785281 0.00832347 83 63 132
54.362 -5.1722 0.00677002 89 73 137
54.4363 -9.35812 0.0076291 102 92 146
54.5007 -13.7498 0.00813794 111 102 149
54.5669 -8.48312 0.00801651 99 87 141
54.8374 -4.56835 0.00582168 87 69 136
54.9056 -8.95102 0.00789339 101 91 144
54.974 -13.4152 0.00788686 112 104 151
54.7367 -0.201391 0.0240829 83 60 132
55.2435 -9.49364 0.00731565 105 95 148
55.3073 -13.7448 0.00768303 113 103 153
55.1764 -4.90411 0.00611027 86 70 135
56.0545 -2.6753 0.0092012 87 66 135
56.1202 -6.92736 0.00687811 87 76 134
56.1181 -6.99444 0.00609943 88 78 138
56.2552 -7.06407 0.00582769 88 77 137
56.3904 -15.3604 0.00914175 86 77 119
56.1028 1.70422 0.0170001 75 64 124
56.3145 2.31746 0.0150682 92 139 154
56.3848 -2.07162 0.00931977 85 66 132
56.4603 -6.18535 0.0061525 82 71 129
56.5281 -10.5755 0.00736509 108 99 146
56.7957 -11.7897 0.00719595 110 103 147
56.7938 -3.21512 0.00965886 86 64 134
56.9973 -16.4433 0.0344992 83 75 118
56.9995 -3.49964 0.00979804 81 60 127
56.9138 0.898355 0.0171185 75 65 128
57.133 -6.86241 0.00620495 85 74 134
57.2033 -11.1138 0.00762419 104 95 142
57.2738 -15.3673 0.00765099 84 76 117
57.3344 -4.01992 0.00993111 85 64 132
57.4729 -12.5968 0.00818427 112 103 150
57.7381 -5.37575 0.0055763 82 68 131
57.4729 -0.907398 0.017075 80 63 131
57.6715 -13.2048 0.00871093 109 100 145
57.605 -9.42312 0.00693234 96 87 140
57.5378 -5.17239 0.00557376 83 67 130
58.28 -8.00611 0.00601416 93 83 136
58.3438 -12.5297 0.00750382 108 100 144
58.6248 -1.7869 0.00914157 72 63 120
59.9694 -12.9345 0.00711988 108 102 140
59.8992 -8.41488 0.00598457 96 88 125
59.2236 -4.766 0.0141811 86 71 128
59.362 -15.4956 0.00919236 84 76 117
59.2932 -11.1118 0.00788404 105 98 141
39.1811 3.56126 0.0165018 62 51 107
39.2472 -0.852361 0.00687899 65 53 119
38.1663 -2.47336 0.00639109 64 54 114
38.0985 1.91114 0.00794893 62 50 116
37.8959 -0.784422 0.0060211 67 52 117
35.8051 -2.5411 0.00759459 65 51 110
35.7233 2.16668 0.0175817 62 48 107
35.6656 -1.86724 0.00647482 65 52 113
38.5018 -4.02485 0.00826591 84 107 139
38.4344 0.159042 0.00549898 63 51 115
35.6615 2.70991 0.0197471 63 48 107
35.7377 -1.52984 0.00628319 63 52 112
37.0804 -4.16134 0.00801324 38 94 94
37.0181 0.0917604 0.00551642 68 53 118
55.0406 -20.7728 1.59888 77 73 131
34.655 3.87006 0.00624721 59 53 102
34.7235 -0.446592 0.00545986 62 51 111
54.2475 -0.230386 0.0102819 82 62 131
54.2971 -4.7665 0.00670834 89 70 136
54.3639 -9.02072 0.00948964 101 91 144
54.4335 -14.1471 0.0102314 102 94 143
35.1976 3.73783 0.00651968 63 50 103
35.2624 -0.584393 0.00505113 63 52 112
53.6214 -7.39922 0.00857689 96 86 143
53.554 -2.94642 0.00717739 85 68 136
53.7636 -16.1806 0.013621 194 180 208
55.0421 -22.6532 2.0047 85 73 145
38.3698 -3.41704 0.00674274 64 54 114
38.2988 0.969777 0.00538747 66 53 115
36.0728 2.84171 0.0149553 62 50 107
36.1418 -1.39259 0.00616031 64 52 113
56.5931 -21.4413 1.75553 82 77 136
34.0479 1.84771 0.00532758 60 49 107
34.1169 -2.54001 0.00597338 63 50 108
51.3266 -2.87924 0.00615368 84 64 136
51.2605 1.50854 0.0051185 79 59 131
33.9115 -4.0252 0.00771412 71 115 133
33.7716 4.0042 0.00839523 48 61 86
33.8438 -0.245658 0.00537568 62 51 109
56.1855 -7.53478 0.00610284 90 81 138
56.0692 0.996832 0.0290619 80 59 126
56.2562 -11.7906 0.00825733 111 102 147
56.9326 -22.5233 1.98467 91 82 149
50.1784 -4.36358 0.00783076 78 63 131
50.2415 -8.88309 0.00915823 85 71 136
37.2231 -4.02615 0.00797405 95 120 152
37.1531 0.363489 0.0056352 67 53 114
36.1415 -2.20293 0.00831817 64 53 113
59.6279 -18.9306 0.837163 93 85 126
34.1858 4.20858 0.00965771 40 99 81
34.2517 -0.177937 0.00557615 63 52 110
55.0398 -9.83327 0.00710928 106 96 148
55.1099 -13.9481 0.011062 115 106 153
33.303 -2.27118 0.0067077 62 51 109
33.2378 1.98144 0.00619147 58 48 101
37.2535 3.30692 0.0231567 62 51 111
37.2854 -0.920788 0.00563296 63 52 114
44.0388 1.98285 0.00580824 71 55 120
44.1057 -2.26997 0.00775341 75 58 126
58.8225 -19.013 0.875062 90 81 126
33.7769 3.94385 0.00869927 55 56 98
33.8443 -0.447826 0.00659294 62 51 111
33.9112 -3.82366 0.00583587 63 57 108
59.6398 -20.1999 1.38547 99 92 136
41.2025 0.025246 0.00657661 66 54 120
41.2705 -4.36486 0.00799264 42 115 98
53.7581 -19.7565 1.2024 88 79 123
57.0641 -22.4521 1.97422 89 80 146
34.6583 0.0913542 0.00551936 62 51 110
34.7186 -4.22732 0.00698229 39 101 81
58.8875 -19.3954 1.04229 93 84 127
34.5189 -1.32527 0.00576728 64 53 113
34.4494 3.06197 0.00740146 62 49 106
56.3232 -3.35187 0.00522954 84 63 132
56.4583 -11.8545 0.00928732 109 100 145
47.6159 0.429057 0.00608905 78 61 132
47.7519 -7.87506 0.0094453 60 132 118
47.6852 -3.48505 0.00806725 80 59 133
39.9881 2.11561 0.00533053 67 53 114
40.0532 -2.2738 0.00800195 66 54 120
58.2802 -10.9117 0.00679809 100 93 137
58.3468 -15.0281 0.00936917 79 70 113
57.2661 -21.319 1.72919 86 81 137
44.239 -0.31241 0.00653745 73 57 124
44.5109 1.71164 0.00601141 73 57 122
44.5764 -2.40543 0.00698597 75 58 126
44.7123 0.293615 0.00682103 72 57 124
44.7829 -3.95627 0.00852963 69 58 123
35.312 2.53316 0.0102827 63 52 112
35.399 -1.86517 0.00592267 64 53 113
35.2634 -2.00045 0.00551948 63 51 113
35.1853 1.91382 0.00698506 59 48 108
33.7776 -3.55345 0.00666008 66 53 107
33.7113 0.699444 0.00608324 60 49 107
35.603 1.30687 0.00869339 65 50 109
35.665 -2.94606 0.00616128 63 52 112
36.3405 -2.87773 0.00645713 62 53 110
36.281 1.1712 0.0105239 65 50 110
35.0607 0.429604 0.00529886 62 51 110
35.1271 -3.9583 0.00739213 100 125 165
35.4644 -4.02433 0.00720785 91 127 160
35.4022 0.228701 0.0126174 63 51 111
34.653 -0.246125 0.00511427 63 50 111
34.5882 4.14312 0.00723608 45 96 87
32.4936 1.77755 0.00639487 58 48 101
35.134 -0.393891 0.00593134 62 51 111
35.0613 3.86731 0.00661525 59 54 99
34.3848 0.430306 0.00678607 63 49 108
32.6996 1.6422 0.00621943 59 49 105
36.0729 -0.717292 0.00650742 64 53 113
36.0189 3.98593 0.015301 44 82 87
34.3875 -3.28508 0.0060782 61 50 106
34.3164 1.10295 0.00603558 63 49 110
36.8839 -0.246403 0.0052121 65 52 116
36.8205 3.68292 0.0135645 60 49 107
34.4546 1.71316 0.00522803 63 51 111
34.5185 -2.67512 0.00667998 62 50 109
34.1817 1.03751 0.00611141 61 50 108
34.2484 -3.21796 0.00621293 61 51 104
37.3591 3.5567 0.0102826 63 52 111
37.4243 -0.381379 0.00544382 65 53 117
36.1309 2.32846 0.0102827 64 52 114
36.2112 -2.06724 0.00588446 63 52 112
38.8397 0.295327 0.00564918 66 52 119
38.9087 -4.09476 0.00920207 77 119 139
35.9389 -2.5401 0.00653803 65 51 110
35.8717 1.87939 0.0198059 61 49 109
35.2004 -3.21407 0.00681885 64 53 111
35.1219 1.17349 0.00686021 63 51 110
54.2998 -20.4291 1.47344 78 69 126
35.0484 -0.111609 0.00641787 62 50 112
34.992 4.27767 0.00623058 40 101 84
34.3199 3.60129 0.00577346 58 48 101
34.3863 -0.650444 0.00533627 63 52 110
41.136 1.10326 0.00584931 68 56 122
41.2009 -3.08217 0.00694819 63 53 114
38.9076 -0.85159 0.00683758 65 53 118
36.8151 1.0368 0.00813523 65 51 112
36.8848 -3.01196 0.00701535 65 53 114
36.0655 0.362451 0.0084961 64 53 113
36.1417 -4.02575 0.00688105 77 115 149
35.731 0.430054 0.00855783 63 52 112
35.8041 -4.02645 0.0082419 85 120 153
33.5067 2.65623 0.00566392 59 47 101
33.5745 -1.73057 0.00530104 62 51 109
32.2222 3.19513 0.0067049 57 47 99
42.2153 1.44141 0.00578688 70 56 118
42.2828 -2.87917 0.00711456 65 53 117
40.9357 -4.095 0.00899315 104 126 168
35.6653 -0.852436 0.00551407 65 51 112
35.5972 3.55261 0.0135381 61 50 107
43.0253 1.3073 0.0058876 72 56 121
43.0914 -2.60297 0.00818231 73 58 123
42.4843 -3.15007 0.00827011 65 55 117
42.4183 1.24049 0.00627274 66 55 119
42.3511 1.10462 0.00608146 66 54 119
42.4181 -3.41847 0.00834288 66 56 118
42.0811 0.834158 0.00639747 67 55 121
42.1487 -3.55417 0.00783974 64 53 117
41.472 -4.229 0.00815939 82 131 149
41.4053 0.499067 0.00686346 66 54 119
36.6111 -0.178195 0.00599677 66 55 115
36.545 -2.20131 0.00631931 63 52 113
36.4915 2.19468 0.0200498 62 51 113
36.342 -0.8533 0.00585811 64 53 113
43.6326 1.44167 0.00592387 71 54 119
43.6987 -2.94649 0.00771393 69 57 121
43.0246 -2.20294 0.00685748 72 55 123
42.9573 2.18522 0.00638789 72 56 119
41.5556 3.76143 0.0102214 46 60 89
41.609 -0.786356 0.00631467 67 55 121
35.6191 2.63552 0.0102827 62 48 107
35.6674 -1.59759 0.00571939 63 52 112
40.9355 -1.93193 0.00762108 66 54 120
35.0603 0.833603 0.005337 64 50 109
35.128 -3.28438 0.00626561 62 51 109
45.0504 1.71082 0.00639814 72 55 123
45.1186 -2.67719 0.00718093 74 57 125
45.0484 1.37536 0.0065289 73 56 124
45.1208 -2.87679 0.00723197 75 60 127
44.5116 -3.28235 0.00733668 75 58 125
44.4433 1.10179 0.00696865 74 58 126
43.6989 -4.22799 0.00762578 96 134 168
43.6334 0.0258484 0.00681366 72 57 122
43.2265 -0.64925 0.0064704 75 59 125
43.1788 3.8689 0.0162297 61 108 108
43.0914 -0.244757 0.00697531 74 57 125
42.6815 3.35199 0.0102824 71 55 116
42.7559 -1.05453 0.00666259 72 55 123
42.483 -1.05401 0.00664739 73 58 125
41.5427 -2.13615 0.00725355 67 55 121
41.4727 2.2512 0.0059372 70 56 117
41.1348 2.31978 0.00553271 67 53 114
41.2043 -2.13548 0.00725302 66 54 120
33.6417 -0.785426 0.00602089 62 49 109
33.575 3.67198 0.00701833 57 45 99
32.765 2.11667 0.00586254 58 48 101
32.832 -1.5274 0.00585984 0 0 2
45.5904 1.17188 0.00603358 73 58 125
45.6554 -2.94831 0.00773154 74 56 125
45.2534 1.17485 0.00655631 74 57 125
45.3238 -3.21473 0.0073155 73 58 125
44.8469 0.834249 0.00655119 69 56 123
44.9169 -3.41567 0.00738679 72 59 123
44.6454 0.632434 0.00663591 73 56 122
44.7119 -3.82348 0.00811801 72 58 121
44.5118 0.15913 0.00684047 73 56 124
44.5773 -4.09212 0.00741915 73 64 121
44.3095 -0.313841 0.00655012 75 59 127
44.2392 -0.109175 0.00737401 74 57 125
44.3089 -4.22749 0.00758567 135 160 199
43.5653 0.0939406 0.00679933 72 59 123
43.0266 -0.313241 0.00684588 76 59 126
43.0906 -0.987764 0.0071089 73 56 124
42.9612 -4.29456 0.0095554 108 157 178
42.8896 0.0927596 0.00686426 75 59 124
42.417 1.77953 0.00572331 72 56 120
42.4836 -2.607 0.00711115 66 54 120
41.4732 -2.87965 0.00819244 64 52 118
41.4039 1.30697 0.006162 69 55 116
41.3373 1.23949 0.00577381 67 54 118
41.4038 -3.14751 0.00705407 63 51 115
40.4618 1.03441 0.0060899 70 53 120
40.5279 -3.48688 0.00765584 64 55 111
40.3248 0.835796 0.00647128 67 54 120
40.3895 -4.02465 0.00781238 45 58 103
34.9286 -4.02525 0.00677937 80 121 149
34.8564 0.227554 0.00552814 63 51 112
34.386 -0.243801 0.00527366 62 51 109
34.3156 4.0061 0.00656882 42 64 79
46.1955 2.2519 0.00560259 73 54 120
46.2671 -1.99934 0.00695511 75 58 126
46.0612 1.24066 0.00599427 75 58 126
46.1295 -3.14667 0.00834964 76 61 128
45.7265 -0.110736 0.00648149 76 58 128
45.7907 -3.6199 0.0072331 74 62 128
45.5911 0.430365 0.00621661 73 58 126
45.6558 -3.82287 0.0074667 72 60 126
44.307 -0.720241 0.00756264 73 56 124
43.9098 3.24964 0.0102824 69 54 116
43.9722 -1.12371 0.00662709 70 56 123
43.7014 3.4722 0.0159478 67 57 112
43.7687 -1.05527 0.00659204 71 57 124
43.6027 3.14729 0.0102824 70 54 116
43.7 -1.12537 0.00674973 72 56 123
43.5003 3.04493 0.0102824 71 55 117
43.5648 -1.19001 0.00664799 73 57 124
43.5649 -1.25664 0.00764211 72 57 124
43.5032 3.14859 0.0162077 72 56 118
43.4207 3.24266 0.0159478 72 54 116
43.4974 -1.2579 0.00680879 73 58 125
43.1933 2.84023 0.0102824 74 58 120
43.2254 -1.25613 0.0076795 72 57 124
43.1607 -1.99946 0.00695511 68 56 122
43.0948 2.38726 0.00602403 72 55 118
42.6881 2.65687 0.00528687 68 52 116
42.755 -1.7292 0.00672613 73 57 124
40.929 -4.15777 0.00785618 98 131 167
38.6897 2.84023 0.0102826 62 48 110
38.7736 -2.00122 0.00645015 65 53 117
46.8725 1.23971 0.00595505 77 62 129
46.9428 -3.01289 0.0075798 77 62 129
46.7365 1.23947 0.00596248 72 57 124
46.8025 -3.14845 0.00761138 76 61 128
46.1319 -4.02518 0.00749726 74 59 126
46.0637 0.22746 0.00676508 75 60 127
45.5928 -4.29763 0.00892145 71 60 127
45.5236 -0.0408565 0.00695362 74 58 125
45.0519 -0.853079 0.00669302 77 60 128
45.1222 -4.96599 0.00779916 56 109 114
44.5108 2.45448 0.00616517 73 53 119
44.5781 -2.06948 0.00740708 75 58 126
43.8353 -1.3934 0.0066906 72 55 123
43.7665 2.86282 0.0217816 69 53 117
43.024 -2.80931 0.00704635 68 56 120
42.9569 1.44263 0.00632396 76 60 125
42.3509 1.30837 0.00596241 69 54 119
42.4166 -3.08223 0.00822169 65 55 118
42.1483 0.969147 0.00603696 67 55 121
42.2149 -3.28204 0.00707097 64 54 117
41.136 0.22659 0.00646444 67 54 120
41.2041 -4.36291 0.00852698 38 111 94
40.9999 -0.448068 0.00623126 69 57 122
40.9601 3.80687 0.0219808 42 72 90
38.3015 -3.14823 0.00645445 66 55 115
38.2327 1.10455 0.00578614 63 51 114
35.7329 -1.46015 0.00590791 64 53 113
46.3344 -0.311353 0.00735052 76 59 129
46.4007 -4.69784 0.00824626 71 58 128
46.2642 -0.514851 0.00654542 76 61 128
46.3317 -4.56592 0.00748623 72 56 127
45.9403 3.59705 0.0210489 48 75 95
46.0618 -4.70252 0.00827124 71 58 128
45.9964 -0.787013 0.0070813 79 63 130
44.7137 2.52193 0.00608615 70 54 117
44.7802 -1.86594 0.00736162 80 63 131
44.5791 -1.39523 0.00783802 73 56 124
44.5146 2.8572 0.0187702 71 55 117
44.172 2.25149 0.00575311 71 53 118
44.2402 -2.13685 0.00692105 77 60 128
42.485 -0.244856 0.00686245 70 55 120
42.5539 -4.0249 0.00806544 62 62 114
41.8779 1.64416 0.00654332 70 56 117
41.9454 -2.74357 0.00802218 65 53 119
41.1337 3.19552 0.00510316 68 52 114
41.2024 -0.855027 0.00635672 68 55 121
40.93 -0.987886 0.00682106 66 54 120
37.9733 3.96614 0.0102216 43 83 87
38.0305 -0.449218 0.00555342 66 51 116
37.894 0.563942 0.00538181 68 52 115
37.9631 -4.16254 0.0072531 65 116 121
37.895 -3.89083 0.00709664 62 59 108
37.8284 0.495322 0.00549196 67 53 116
35.7354 -1.66348 0.0059864 62 50 112
35.6603 2.56413 0.0177003 65 51 111
34.5885 -3.28393 0.00655247 62 51 107
34.5207 1.10381 0.00665962 62 51 111
47.8833 0.903373 0.00637255 74 58 128
47.9532 -3.55127 0.00776164 74 56 129
48.0241 -7.94137 0.0101041 65 121 121
47.9542 -3.75535 0.00711889 74 58 130
47.8877 1.10411 0.00636705 75 60 128
48.0156 -8.01202 0.0112429 57 122 115
47.8165 1.03792 0.00585203 76 61 128
47.8847 -3.21298 0.0076849 79 64 133
47.9511 -8.07794 0.0111886 56 132 115
47.6146 0.903134 0.00605575 76 60 130
47.6852 -3.95764 0.00834459 77 62 130
47.6158 0.834296 0.00597938 76 59 129
47.6848 -3.89145 0.00785943 76 61 131
47.1444 0.0903663 0.00622943 78 57 129
46.5373 -0.785405 0.00646282 76 59 127
46.6014 -4.97014 0.00881726 74 60 132
44.3755 1.23905 0.00601292 72 55 123
44.4409 -2.6777 0.00718311 75 58 126
44.1729 1.30683 0.00599751 72 55 123
44.2412 -3.07886 0.00728812 73 59 124
44.0376 -0.851845 0.00669943 73 58 125
43.4991 1.03887 0.00604547 73 56 124
43.5629 -3.21677 0.00788467 70 58 122
43.4969 -3.284 0.00736012 69 57 121
43.4301 0.972558 0.00661743 73 56 124
43.2276 0.90333 0.0064657 74 57 125
43.2957 -3.4853 0.0074171 70 58 120
42.8892 -4.22339 0.00823631 158 195 230
42.8242 0.159359 0.00752559 73 57 122
41.7433 2.52201 0.00512543 69 55 116
41.8096 -1.7308 0.0066926 69 57 123
39.4483 1.30707 0.00545142 64 52 116
39.5142 -3.08306 0.00682815 65 55 116
38.0316 -3.89068 0.00698819 60 58 108
37.9641 0.362269 0.00609568 66 52 116
48.697 1.172 0.00591531 77 60 132
48.7628 -3.68882 0.00748385 78 60 134
48.8281 -7.93961 0.0099282 76 69 133
48.6278 0.227741 0.00598305 77 57 129
48.6966 -4.15851 0.00714242 74 58 129
48.759 -8.07636 0.00966238 77 74 134
48.6277 -3.6893 0.0071935 78 60 134
48.5618 0.428737 0.00674762 77 59 130
48.694 -8.0791 0.0120303 82 84 137
48.3566 2.11622 0.00513505 75 58 126
48.4239 -2.13735 0.0071694 80 63 131
48.4976 -8.34084 0.00981109 65 111 116
48.1568 -0.247275 0.00652164 76 59 129
48.2262 -4.15826 0.0089061 73 56 127
47.5945 3.65906 0.0102822 73 124 123
47.7491 -4.63274 0.00732626 76 59 130
47.4095 -0.448335 0.00722832 78 58 130
47.481 -4.83531 0.00875319 77 60 131
46.8662 3.4683 0.0155316 63 65 110
46.9415 -0.919919 0.00733331 77 60 128
47.0134 -5.3067 0.00753438 74 61 131
46.7493 3.37723 0.020781 72 61 121
46.8042 -0.989983 0.00652651 80 60 131
46.8736 -5.4424 0.00775901 75 62 132
58.5468 -21.574 1.78489 89 84 140
45.995 2.79191 0.00552449 73 54 120
46.0623 -1.79726 0.00794465 76 59 127
46.134 -6.04821 0.00862303 55 116 114
45.7929 1.91365 0.00583494 75 58 125
45.8621 -2.33777 0.00743725 77 60 128
45.4575 -2.60542 0.00716079 77 58 124
45.3867 1.64589 0.00697118 72 55 123
43.2957 3.86378 0.0102214 60 119 108
43.3623 -0.449745 0.00642037 74 56 122
42.3498 -0.989149 0.00698237 70 58 123
41.6072 2.72332 0.00489905 71 56 115
41.6744 -1.52779 0.00667895 66 54 120
40.5274 1.57573 0.00549067 68 52 117
40.5934 -2.81063 0.00781729 66 54 120
40.3938 -3.48696 0.00691568 64 55 112
40.3267 0.29575 0.00671986 65 53 119
36.0715 -2.81064 0.00629415 64 53 113
36.0026 1.77417 0.0110713 66 50 112
54.0428 0.179029 0.0102819 80 60 129
54.1644 -8.68411 0.00857492 100 91 146
54.0938 -4.09352 0.0070034 85 68 136
53.9589 -1.3273 0.00572858 87 68 134
54.0258 -5.71173 0.00763767 86 72 132
54.1584 -14.5536 0.0115743 103 95 143
49.9107 0.968702 0.00503426 78 61 131
49.9769 -3.28411 0.00807668 81 61 132
50.0452 -7.53883 0.0091681 84 72 138
49.2356 0.0901953 0.00599528 78 58 129
49.3049 -3.95466 0.00749096 76 59 131
49.3691 -8.20933 0.0109033 79 67 129
49.1011 0.428419 0.00580606 77 57 129
49.1679 -3.96002 0.00763227 78 62 133
49.2355 -8.34097 0.00988501 78 68 130
48.8296 -0.111835 0.00613006 76 58 132
48.8965 -4.35846 0.00815783 78 62 132
48.9632 -8.61549 0.00998528 37 62 88
48.1548 -0.448029 0.0061678 79 59 130
48.2209 -5.03676 0.00811286 73 60 130
47.6251 3.58083 0.0206236 60 94 106
47.6812 -1.25749 0.00661449 81 60 129
47.7522 -5.50904 0.00857577 73 60 130
46.8742 2.65536 0.00552075 76 55 122
46.9378 -1.72854 0.00670526 75 58 126
47.0071 -6.12008 0.00781341 73 61 128
46.4695 1.9144 0.0058141 73 56 124
46.5332 -2.33757 0.0068623 78 61 129
46.6008 -6.65914 0.00980073 61 137 126
45.5228 1.37429 0.0060973 73 56 124
45.5886 -3.01187 0.00711409 76 59 127
45.4547 1.44137 0.00637078 74 57 125
45.5244 -3.42249 0.00737232 75 59 124
44.9186 0.900264 0.00667125 72 57 124
44.9806 -3.69059 0.00851832 74 59 126
44.7129 0.495903 0.0063413 69 57 123
44.7819 -3.89032 0.00735293 69 57 121
44.3745 -0.179178 0.00638165 75 58 126
44.4448 -4.5011 0.00895498 57 122 117
43.2282 -0.786454 0.00695696 74 57 125
43.1826 3.46916 0.0162077 71 61 119
43.0254 -4.3657 0.00815904 47 115 114
42.9566 0.0256196 0.00670943 77 60 125
42.89 0.0251033 0.00624473 75 59 124
42.9565 -4.23198 0.0081647 153 192 226
41.0668 1.37398 0.00577623 67 51 116
41.1351 -2.87637 0.00752206 64 54 117
40.9338 -3.55238 0.00702705 65 54 114
36.2738 1.10394 0.0103233 64 50 109
36.3403 -2.81043 0.00637817 63 52 111
54.0591 -20.7252 1.59006 82 71 131
54.2281 -20.6979 1.57248 79 68 128
50.5165 -3.54985 0.00663032 78 64 133
50.4501 0.971007 0.00552493 78 58 130
50.5848 -7.80314 0.0100671 87 75 139
50.3815 0.970445 0.00507193 78 58 130
50.4506 -3.41647 0.00778331 78 66 136
50.1785 0.696891 0.0055556 76 59 127
50.316 -8.07149 0.0101386 86 74 138
50.1115 0.696464 0.00552908 76 59 127
50.2502 -8.07993 0.00973292 85 73 137
50.1798 -3.55431 0.0080405 79 65 135
49.7077 0.0237694 0.00580133 79 62 130
49.7732 -4.2276 0.0084386 75 59 130
49.842 -8.54992 0.0116883 80 66 132
49.5714 -0.111831 0.0067306 79 60 129
49.7118 -8.61735 0.0102072 81 69 130
49.303 -0.17875 0.00591743 77 60 129
49.3672 -4.42985 0.00764781 78 61 132
49.6404 -8.54668 0.00880292 81 70 130
49.1001 -0.380083 0.00603721 79 58 129
49.2337 -9.15168 0.0106714 73 137 127
49.0337 -0.720278 0.00626129 82 61 132
49.0984 -5.1032 0.00724055 79 62 133
49.1666 -9.22285 0.0114019 69 146 124
48.9661 -0.447797 0.00604936 81 60 131
49.0315 -4.89972 0.00719398 74 61 131
48.8307 -5.24232 0.00755247 77 59 130
48.7627 -0.988951 0.00678377 78 58 127
48.4991 3.16866 0.00483826 72 61 119
48.6287 -5.30778 0.00819466 78 61 132
48.5606 -1.18895 0.0068917 85 65 134
48.0886 -1.86615 0.00712997 77 61 129
48.1562 -6.11646 0.00874883 73 60 130
47.48 2.11714 0.00649312 75 58 125
47.5464 -2.13368 0.00719217 77 60 128
47.6154 -6.3859 0.00910285 72 58 132
46.8692 -2.54167 0.00691545 78 61 129
46.9396 -6.79493 0.0087579 56 106 119
46.8054 2.58751 0.0066753 76 55 122
46.8061 -3.68995 0.00828968 77 60 128
46.7373 0.699199 0.00734271 77 60 131
46.5999 -3.08191 0.00773754 77 61 129
46.5323 1.64488 0.00627792 75 58 126
46.1972 2.58821 0.00552564 73 54 120
46.2656 -1.79787 0.00742911 75 58 126
46.1337 2.79249 0.00610906 74 55 121
46.1974 -1.59566 0.00669867 75 58 126
46.2627 -5.98054 0.00946374 40 73 93
45.9928 1.17165 0.0060223 74 57 125
46.063 -3.416 0.00851411 73 61 127
45.7926 0.767363 0.00687726 74 58 125
45.8592 -3.61999 0.00739421 75 63 129
45.7278 0.226322 0.00628081 74 59 126
45.7924 -3.95945 0.00730781 72 60 126
43.2275 2.18509 0.00568278 72 56 119
43.2938 -2.06514 0.00806545 70 58 123
42.6205 2.11693 0.00563955 72 53 119
42.688 -2.40438 0.00811177 70 55 122
42.214 1.71135 0.00573064 70 56 117
42.2826 -3.14824 0.00709911 64 54 117
41.6748 1.17316 0.00590193 71 55 120
41.7441 -3.41465 0.00777013 65 53 117
38.9083 -2.13547 0.00637772 67 53 118
38.8401 2.11518 0.00523524 65 51 112
51.0591 -3.82569 0.00667381 84 69 136
51.1205 -8.07797 0.00989369 86 74 136
50.7225 -4.02586 0.00762984 80 66 134
50.6532 0.363431 0.00600022 78 58 127
50.788 -8.41267 0.00968385 87 75 139
50.5182 1.17081 0.00557295 78 58 130
50.5847 -3.0823 0.00658056 83 63 134
49.1015 -1.12395 0.00710218 82 63 131
49.1683 -5.6455 0.00789093 79 65 132
49.0326 3.19716 0.00470871 70 59 115
49.1669 -5.57949 0.00791189 75 63 129
48.5614 2.38804 0.00498934 74 57 125
48.6296 -1.86558 0.00746293 79 62 130
48.6927 -6.11805 0.00809355 77 65 131
47.888 1.78019 0.00530213 75 58 126
47.9503 -2.27261 0.00762565 77 61 129
47.0758 1.44207 0.00584957 75 60 127
47.1417 -3.14887 0.00708101 78 63 130
46.8034 -2.87835 0.00759814 78 61 129
46.7365 1.50877 0.00630335 75 60 127
45.5681 3.22485 0.0210551 68 57 117
45.7276 -5.58007 0.00853528 51 103 110
45.6583 -1.19071 0.00716924 78 59 128
45.1874 -1.66107 0.00677063 78 61 129
45.251 -5.04179 0.0077954 49 94 106
45.1175 2.72325 0.0066341 73 54 120
44.8484 -1.59613 0.00677378 75 58 126
44.308 2.52237 0.00619209 73 54 120
44.3731 -1.86442 0.00681907 76 59 127
44.1718 2.3182 0.00571053 72 54 119
44.2396 -1.92935 0.00797143 76 59 127
44.1035 -1.99911 0.00702919 75 58 126
44.0362 2.25107 0.00622036 72 57 119
43.9697 2.11593 0.00578088 71 56 118
44.0391 -1.99799 0.00699951 75 58 126
43.2943 -2.40284 0.00816326 70 58 124
43.2271 1.98031 0.00649622 74 58 121
41.9453 1.17106 0.0059212 69 53 118
42.0122 -4.09066 0.00726748 56 79 126
41.81 1.03896 0.00586984 66 54 118
41.8774 -3.08179 0.00714317 66 54 120
41.5432 -4.09592 0.0091919 80 103 148
41.4719 0.160547 0.00745381 67 52 119
41.2716 -1.05601 0.00703528 68 54 121
41.2027 3.19772 0.00548035 68 52 113
52.0038 0.698769 0.00503008 79 58 127
52.0703 -3.68869 0.00673142 85 70 137
52.2702 -16.3772 0.0290759 235 219 246
52.2021 -12.1958 0.010178 47 83 83
52.1385 -7.80751 0.00941111 91 80 140
51.3942 0.361628 0.00550142 76 59 127
51.4643 -4.22682 0.00661711 81 65 133
51.5262 -8.48268 0.010145 86 76 137
51.1263 -8.88168 0.00950872 87 75 136
50.9899 -0.380215 0.00631507 80 60 129
50.9223 -0.447034 0.00629805 80 60 129
50.9885 -4.70259 0.00755458 82 67 134
50.7874 0.0906402 0.0056741 78 58 127
50.8534 -4.29886 0.00684485 81 66 134
50.9245 -9.01932 0.0107855 84 73 132
50.7876 0.0226249 0.00619994 79 58 127
50.854 -4.22806 0.00774728 80 65 133
50.9195 -9.0876 0.00941618 85 74 132
50.7201 -0.650057 0.00605388 78 61 129
50.8572 -9.15061 0.00967164 87 73 133
50.3163 -5.64524 0.00712973 84 69 136
50.2476 -1.25576 0.00660212 80 62 130
50.3802 -9.55933 0.0107994 81 78 133
50.2485 -1.32579 0.00616182 79 61 129
50.3134 -5.57802 0.00720887 83 68 135
50.3809 -9.62949 0.00981777 80 80 130
49.5723 2.65579 0.00554661 78 59 125
49.7089 -5.84619 0.00784717 78 66 132
49.6407 -5.91554 0.00945277 78 66 132
48.7633 -6.92989 0.0077667 79 67 133
48.6958 -2.06816 0.00798548 79 59 128
48.4219 0.766783 0.00597982 76 60 131
48.5575 -6.99648 0.00897669 78 66 131
48.4946 -2.60639 0.00790167 82 62 130
47.751 0.632121 0.00602382 77 57 129
47.8166 -3.48693 0.00717067 77 60 131
47.8837 -7.87492 0.0100445 65 131 121
47.5486 0.565311 0.00639118 78 57 130
47.6169 -3.69126 0.00782958 76 60 131
47.4822 -3.8208 0.00837774 76 60 130
47.4115 0.429276 0.00695019 77 59 130
46.401 -0.0418919 0.0063198 78 60 133
46.4676 -4.29637 0.00809267 72 57 127
45.6573 -0.381102 0.00689675 79 61 129
45.7274 -4.76887 0.0100079 71 60 127
44.6452 -3.01316 0.00845996 74 58 123
44.5771 1.37394 0.00641345 72 55 122
44.2396 2.18517 0.00613902 73 54 120
44.3075 -2.20035 0.00707688 76 59 127
43.9704 -0.988223 0.00712699 70 58 124
42.893 -1.86363 0.00743277 73 58 125
42.8223 2.38676 0.00595847 72 53 117
42.8198 2.83786 0.00510426 75 56 120
42.891 -1.52678 0.00685064 69 57 123
41.7448 1.91561 0.0060458 68 54 116
41.8093 -2.47463 0.00792366 66 54 120
41.0559 3.47365 0.0162446 63 54 112
41.1352 -0.920137 0.00646199 68 53 120
53.2849 -16.9862 0.132421 240 224 252
52.8138 -3.55059 0.00607946 87 70 138
52.9461 -12.0621 0.0087999 102 99 142
52.8772 -7.93822 0.00915428 92 81 141
52.4601 0.610085 0.00610763 79 58 127
52.6772 -12.7296 0.0103704 104 108 144
52.5426 -3.95646 0.00732065 88 71 139
52.6119 -8.20977 0.0096779 96 85 143
52.341 -4.29797 0.00642715 84 66 135
52.405 -8.41258 0.00978864 89 79 138
52.1384 -0.515606 0.00532336 81 60 129
52.205 -4.90394 0.00641037 82 70 136
52.3397 -12.9325 0.00847743 37 62 70
52.2736 -8.54646 0.0112245 90 80 140
51.9377 -8.82347 0.00955979 89 78 137
50.6499 -5.71254 0.00701403 81 67 134
50.5851 -1.53062 0.00696844 80 60 129
50.7179 -10.0983 0.0117533 86 92 137
49.5716 1.84712 0.00504535 79 59 131
49.6404 -2.53866 0.00694224 80 60 129
49.708 -6.65987 0.00829605 79 64 131
48.426 1.57636 0.00521796 76 58 129
48.4921 -3.41957 0.00757742 77 60 132
48.5609 -7.8027 0.00792138 74 68 130
48.2242 0.563251 0.00602272 76 59 130
48.3564 -7.93883 0.00882013 20 30 69
48.2938 -3.82447 0.00824867 76 58 132
48.2207 0.630765 0.00625863 75 58 129
48.2901 -3.61957 0.00796483 76 58 133
48.3525 -8.14044 0.00922203 55 97 108
48.1552 0.362722 0.00599488 77 60 131
48.2217 -3.68864 0.0081078 76 58 132
48.2917 -7.94204 0.00954874 20 38 71
47.9524 0.430008 0.00639034 76 59 130
48.0179 -3.82132 0.00780388 74 58 129
47.9542 0.496042 0.00600026 77 60 131
48.0175 -3.89112 0.00769478 76 60 131
46.805 2.79011 0.00589762 75 55 120
46.9392 -4.96743 0.00980813 72 59 129
46.8746 -0.585378 0.00697589 75 57 128
46.4008 2.92165 0.00540424 72 56 121
46.5392 -5.57967 0.00973449 73 61 129
46.473 -1.32579 0.00728683 76 59 127
45.5242 2.58847 0.00568842 76 55 123
45.5933 -1.79835 0.00679972 76 59 127
44.5793 -2.26943 0.00811422 75 58 126
44.511 2.11809 0.00627648 73 56 120
43.499 -0.5143 0.00788998 74 58 126
43.4438 3.5985 0.0219634 62 65 108
42.214 2.99223 0.00494074 67 53 114
42.2809 -1.19104 0.0065529 69 56 123
40.9339 2.31957 0.00544585 68 53 115
40.9994 -1.93368 0.00664434 66 54 120
53.4855 -12.5963 0.00950774 105 97 146
53.4229 -8.21213 0.00932005 99 88 145
53.0804 -13.2744 0.00873202 99 97 137
53.0138 -8.68459 0.00866313 98 87 144
52.8127 0.0928477 0.0052449 81 61 130
52.8803 -4.29705 0.00695312 85 68 136
52.9483 -8.6845 0.00962096 98 87 143
52.6103 -4.89961 0.00685232 88 76 140
52.7409 -13.4136 0.0104594 98 103 139
52.677 -9.01801 0.00996858 99 88 146
52.3406 -5.03934 0.00661759 86 74 138
52.4768 -13.5383 0.00884406 34 48 72
52.273 -0.787316 0.00577511 83 63 132
52.4059 -9.28832 0.00914742 90 79 137
52.2703 -4.90239 0.00646655 83 71 135
52.4043 -13.6784 0.0104335 29 51 65
52.2064 0.0911086 0.00587614 80 60 129
52.3366 -9.29264 0.010838 94 83 141
52.003 -0.989036 0.00616718 87 66 135
52.0695 -5.24094 0.006649 85 70 135
52.2027 -13.742 0.00864087 48 88 87
52.1381 -9.49179 0.010838 92 81 141
51.1255 1.84664 0.0045408 78 61 132
51.328 -10.3105 0.0114716 85 79 132
51.1901 -1.79665 0.00718553 83 64 133
50.7199 1.91486 0.00496545 75 58 129
50.8553 -6.85935 0.00841004 83 71 135
50.9221 -10.7694 0.0108539 84 139 131
50.5841 -4.90476 0.00741086 78 61 129
50.1809 1.57801 0.00482256 74 60 130
50.2504 -2.94776 0.00691245 81 60 132
50.315 -7.19521 0.00807209 83 71 137
49.5733 1.03731 0.00565115 77 59 132
49.6372 -3.34705 0.00863966 80 62 133
49.7082 -7.46638 0.00828016 83 71 137
48.8978 0.6989 0.00618277 76 56 128
48.9665 -3.68895 0.00690174 77 59 133
49.0352 -8.14182 0.0087689 79 68 132
48.8991 0.768001 0.00624423 76 57 129
49.0271 -8.34774 0.00903203 73 73 126
48.6285 0.633915 0.00580212 76 59 130
48.692 -3.75632 0.00784759 78 60 134
48.7616 -8.47594 0.0105923 51 93 102
48.2925 -1.52754 0.00660723 76 60 128
48.3577 -5.91862 0.00868977 76 63 132
48.2252 2.85903 0.00644358 77 56 123
48.2227 -0.179613 0.00653689 78 61 130
48.2895 -4.42968 0.00778863 77 59 132
47.9713 3.59502 0.0205306 59 95 107
48.0205 -0.785245 0.0067562 80 60 131
48.0851 -4.90189 0.00852429 74 59 130
47.6099 3.24933 0.0154128 71 61 115
47.6815 -0.92132 0.00651902 76 59 129
47.7496 -5.30846 0.00750216 75 59 130
46.8724 -6.18559 0.00801039 86 80 140
46.8081 -2.40463 0.00760276 79 62 130
46.7388 1.8487 0.00622847 74 59 126
46.4663 2.72276 0.00615054 73 54 120
46.5337 -1.52999 0.00667602 78 58 127
46.602 -6.38477 0.00919204 47 85 98
46.1946 -2.81405 0.00813316 76 61 128
46.1298 1.30784 0.00650839 75 58 126
45.9292 -2.94456 0.00772452 75 58 126
45.8573 1.5771 0.00635337 73 56 124
45.7945 -2.47143 0.00755173 77 57 126
45.725 0.900364 0.00667468 71 56 123
45.5923 1.30693 0.00600429 72 55 123
45.6553 -3.08479 0.00777071 77 60 128
45.3893 1.10292 0.00605587 72 57 124
45.4571 -3.14752 0.00841565 75 59 127
45.0497 1.17304 0.00616327 73 56 124
45.1234 -3.21527 0.00734296 74 58 124
44.5087 -3.69016 0.00804951 72 57 122
44.4404 0.700552 0.00718775 73 56 124
43.7672 0.0237764 0.00682072 72 57 122
43.8354 -4.22868 0.00828726 98 137 168
43.6027 3.65906 0.0102824 57 66 104
43.6975 -0.583761 0.0064736 75 57 125
43.4975 0.295686 0.00638198 74 58 123
43.5649 -4.09146 0.00737926 72 81 128
53.4896 -21.5078 1.77267 96 85 142
54.4976 -8.00973 0.00815204 98 87 145
54.0548 0.822068 0.018342 81 60 129
54.1651 -8.279 0.0099906 99 89 143
54.0926 -12.7365 0.00868355 106 100 146
54.0269 -8.48276 0.00953522 99 89 143
53.7428 1.84234 0.0158852 80 61 127
53.8263 -2.40454 0.00587503 85 66 132
53.9561 -12.8617 0.00883381 114 110 155
53.8298 -8.61857 0.00938922 98 89 142
53.5521 -0.516927 0.00542376 82 62 131
53.7552 -13.2067 0.00952531 111 103 152
53.6881 -8.8138 0.00899273 100 90 143
53.3523 -4.83414 0.00665823 85 69 134
53.4828 -13.3406 0.00901225 107 101 149
53.2846 -0.515122 0.00573163 84 63 131
53.4167 -9.08289 0.00923704 102 92 145
53.1439 -13.8113 0.0113362 95 92 137
53.081 -9.42756 0.00925143 101 90 148
52.7434 1.18003 0.0145194 81 60 129
52.8116 -5.17097 0.00707 85 73 135
52.9413 -13.6752 0.00966043 95 94 136
52.8826 -9.55861 0.0105314 99 90 143
52.4052 3.24966 0.010221 69 76 122
52.5435 -5.57842 0.00707564 86 74 138
52.677 -14.3502 0.00977342 95 104 140
52.476 -0.990056 0.00612454 87 66 135
52.611 -9.83448 0.0100308 100 90 143
52.3397 -1.52767 0.00553481 80 65 132
52.5431 -14.8907 0.0078584 58 60 83
52.4073 -5.77866 0.0077562 85 74 134
52.2839 2.7314 0.0171813 82 62 131
52.4766 -10.0328 0.00995187 92 82 135
51.9197 2.86402 0.019388 78 62 125
52.0697 -5.98401 0.00693014 86 74 138
51.807 2.16701 0.0192713 80 63 134
51.8718 -2.20237 0.00598649 86 65 134
51.9353 -6.59108 0.00700192 84 73 133
51.9982 -10.5113 0.0100176 92 83 136
51.1261 -1.59429 0.0062564 84 64 133
51.1914 -6.99406 0.00804474 85 73 137
51.2532 -11.2502 0.0118141 81 137 125
50.9214 1.50915 0.00467142 75 56 129
50.9917 -2.87772 0.00637308 82 62 134
50.1126 0.563771 0.00557919 81 59 131
50.1783 -3.689 0.00680365 77 64 133
50.2499 -7.93711 0.00913233 86 74 138
49.9762 -0.040984 0.00588277 80 60 129
50.0449 -4.29868 0.00704215 76 61 130
50.1123 -8.0745 0.00844547 85 73 137
49.6387 -4.15815 0.00739379 77 60 131
49.7105 -8.2781 0.00797033 80 69 133
49.5731 0.226269 0.00717851 77 60 130
49.3029 -0.445933 0.00608926 80 59 129
49.3674 -4.70113 0.0075623 74 61 131
49.6394 -8.27776 0.00900883 79 69 132
49.4334 -9.22303 0.00886612 46 89 96
48.7632 -0.650972 0.00616698 79 59 130
48.8285 -5.03574 0.00740537 77 61 132
48.3555 -0.852165 0.00630944 76 59 129
48.4231 -5.10319 0.00843699 77 61 132
48.2839 3.65088 0.0168687 66 121 118
48.1528 2.99462 0.00496893 75 54 123
48.2222 -0.920652 0.00645307 78 61 129
48.2912 -5.3063 0.00819825 76 60 131
48.1063 3.45435 0.0102822 59 70 106
48.1544 -0.92037 0.00671292 78 61 129
48.2229 -5.6451 0.00768169 78 62 133
47.8846 -1.05681 0.00653096 77 60 128
47.8373 3.21549 0.0232348 71 60 116
47.5451 2.92628 0.00511953 76 57 123
47.6137 -1.45917 0.00760561 77 60 128
47.6852 -5.91438 0.00766252 74 61 131
47.3477 2.92762 0.00566807 73 54 120
47.4123 2.25177 0.0054747 75 58 123
47.481 -2.1355 0.00723329 77 60 128
47.5499 -6.52281 0.00782934 73 59 127
47.0745 2.79405 0.0052594 76 55 122
47.2124 -5.50863 0.00818339 74 61 131
47.1411 -1.25909 0.00713226 77 62 129
46.7388 2.72419 0.00595961 75 56 120
46.8715 -6.92373 0.0087787 53 123 119
46.8025 -1.66316 0.00816259 76 59 127
46.5999 2.52221 0.00618978 77 58 124
46.672 -1.72929 0.00671717 75 59 126
46.74 -5.98011 0.00844756 72 62 127
46.1939 2.11749 0.00629249 72 55 123
46.2687 -2.13545 0.00683541 77 60 128
46.1957 -6.25146 0.0104731 50 125 112
46.1335 -1.7304 0.00825417 76 59 127
46.0635 2.52275 0.00701034 77 58 124
45.253 0.0898548 0.00644801 73 56 124
45.3206 -4.29761 0.00814456 73 61 130
44.9827 1.97979 0.00623073 72 54 122
45.0519 -2.26937 0.00709198 75 58 126
44.5127 -0.650807 0.00665461 75 60 127
44.0387 1.03671 0.00645848 70 55 122
44.1034 -3.21573 0.00731552 72 60 124
43.902 1.44207 0.0059395 74 55 121
43.9701 -2.81132 0.00709143 72 60 126
43.4309 -1.18913 0.00665434 72 55 123
53.8233 -17.6073 0.312387 239 225 252
54.8254 3.21122 0.0183341 73 141 137
54.9729 -4.02486 0.00585991 86 67 136
55.041 -8.27949 0.00816968 98 89 142
55.1048 -12.7979 0.00954198 110 102 149
54.7939 3.17966 0.0183341 76 142 138
54.8383 -0.924904 0.00986321 83 64 130
54.9031 -5.30853 0.00591305 90 74 137
54.6569 -0.230386 0.0102819 82 60 132
54.772 -8.54842 0.00804301 97 87 140
54.2783 0.782943 0.0182743 81 60 129
54.364 -3.48686 0.00565943 86 69 137
54.4333 -8.88642 0.00951122 100 90 143
54.5009 -13.1358 0.00901659 109 101 148
54.2315 -4.56553 0.00634193 86 67 137
54.3637 -13.3349 0.00809818 105 96 144
54.2974 -9.08609 0.00846569 103 92 147
53.9613 -13.6745 0.011107 113 104 151
53.7329 2.65159 0.0178661 78 64 129
53.8923 -9.42165 0.00871694 102 92 145
53.3515 -1.32631 0.00535292 86 65 134
53.5539 -14.0818 0.00857724 99 92 143
53.4211 -5.57929 0.0070404 86 73 135
53.4893 -9.83105 0.00914189 104 94 147
53.1433 2.64802 0.0161368 77 65 131
53.2827 -6.11846 0.00656688 89 77 139
53.4221 -14.4231 0.0105986 98 91 142
53.217 -1.73067 0.00587953 85 65 134
53.3509 -10.0339 0.00994686 103 94 146
52.9433 3.33033 0.0157925 83 110 139
53.0817 -5.7791 0.00742313 82 70 134
